# .PCD v0.7 - Point Cloud Data file format
VERSION 0.7
FIELDS x y z intensity ring time
SIZE 4 4 4 4 2 4
TYPE F F F F U F
COUNT 1 1 1 1 1 1
WIDTH 1216
HEIGHT 1
VIEWPOINT 0 0 0 1 0 0 0
POINTS 1216
DATA ascii
2.8911288 1.9280413 -0.73866349 0 14 0
3.2669697 2.1786828 -0.73961645 0 15 0
3.7496319 2.5005612 -0.74072236 0 16 0
4.3928928 2.9295406 -0.74204057 0 17 0
5.2833295 3.5233567 -0.74219251 0 18 0
6.5906091 4.3951573 -0.73941541 0 19 0
8.8240414 5.884593 -0.74147552 0 20 0
13.253175 8.8383017 -0.74161172 0 21 0
26.510443 17.679333 -0.74086964 0 22 0
1.0235234 0.72583371 -0.74413574 0 0 0
1.0774038 0.76404309 -0.74231315 0 1 0
1.1324733 0.80309576 -0.73827726 0 2 0
1.2024348 0.85270905 -0.74040514 0 3 0
1.2797832 0.90756083 -0.74282438 0 4 0
1.3606396 0.96490031 -0.74273914 0 5 0
1.4418826 1.0225139 -0.7382859 0 6 0
1.5488982 1.0984043 -0.74166691 0 7 0
1.6492715 1.1695842 -0.73596978 0 8 0
1.7725017 1.2569731 -0.7341547 0 9 0
1.9301966 1.3688028 -0.73857701 0 10 0
2.1000319 1.4892418 -0.7382676 0 11 0
2.3127534 1.6400937 -0.74209392 0 12 0
2.5561261 1.812682 -0.74271208 0 13 0
2.8428099 2.0159843 -0.7407949 0 14 0
3.2080963 2.2750278 -0.7407639 0 15 0
3.6664259 2.6000533 -0.73872155 0 16 0
4.3066745 3.0540869 -0.74197632 0 17 0
5.1709166 3.6669657 -0.74087918 0 18 0
6.4637618 4.5837898 -0.73963809 0 19 0
8.6449394 6.1305761 -0.74090451 0 20 0
12.983132 9.207015 -0.7409811 0 21 0
25.986996 18.42873 -0.74071628 0 22 0
0.99698114 0.75090468 -0.74020106 0 0 0
1.06361 0.80108804 -0.74834085 0 1 0
1.102302 0.83023 -0.7338385 0 2 0
1.1751761 0.88511729 -0.73895717 0 3 0
1.2573645 0.94701976 -0.74527979 0 4 0
1.323958 0.99717659 -0.73803312 0 5 0
1.4123861 1.0637786 -0.73851031 0 6 0
1.5169991 1.142571 -0.74178797 0 7 0
1.6260213 1.2246841 -0.74097317 0 8 0
1.7585366 1.3244919 -0.74380791 0 9 0
1.8874335 1.4215741 -0.73752087 0 10 0
2.070538 1.5594846 -0.74332649 0 11 0
2.259608 1.7018881 -0.740408 0 12 0
2.4937851 1.8782653 -0.7399556 0 13 0
2.7800009 2.0938368 -0.73978168 0 14 0
3.1297157 2.3572342 -0.73798198 0 15 0
3.5944002 2.7072246 -0.73955876 0 16 0
4.2134233 3.1734595 -0.74129581 0 17 0
5.0663271 3.8158481 -0.74127871 0 18 0
6.3411508 4.7760181 -0.74098676 0 19 0
8.4511967 6.3652592 -0.73965114 0 20 0
12.715755 9.5772314 -0.7411024 0 21 0
25.44911 19.167721 -0.7407589 0 22 0
0.97759283 0.78124344 -0.74214661 0 0 0
1.0260932 0.82000256 -0.73819792 0 1 0
1.0793591 0.86256993 -0.73474187 0 2 0
1.1518239 0.92048019 -0.74057883 0 3 0
1.2272667 0.98077035 -0.74381691 0 4 0
1.2971973 1.0366554 -0.73939514 0 5 0
1.3781453 1.1013451 -0.73682964 0 6 0
1.4793341 1.1822101 -0.73965579 0 7 0
1.6048781 1.2825385 -0.74780309 0 8 0
1.7098968 1.3664643 -0.73951703 0 9 0
1.8488396 1.4775004 -0.73870462 0 10 0
2.0257227 1.6188565 -0.74361014 0 11 0
2.2040462 1.7613639 -0.73846108 0 12 0
2.4452565 1.954127 -0.74189073 0 13 0
2.7249272 2.1776259 -0.74145097 0 14 0
3.0789464 2.4605405 -0.74235547 0 15 0
3.5095055 2.8046219 -0.73834801 0 16 0
4.1159387 3.289253 -0.74044752 0 17 0
4.9396324 3.9475081 -0.73901266 0 18 0
6.201798 4.9561677 -0.74101824 0 19 0
8.2755327 6.6133933 -0.74058276 0 20 0
12.43712 9.939126 -0.74118197 0 21 0
24.887768 19.889063 -0.74072868 0 22 0
0.95570797 0.80975223 -0.7428683 0 0 0
1.0019681 0.84894758 -0.73806542 0 1 0
1.0612981 0.89921665 -0.7397095 0 2 0
1.1255093 0.95362151 -0.74095058 0 3 0
1.1851428 1.0041476 -0.73544919 0 4 0
1.2721279 1.0778484 -0.74243128 0 5 0
1.3480158 1.1421468 -0.73794156 0 6 0
1.4421021 1.2218642 -0.73826844 0 7 0
1.5503521 1.3135823 -0.73965716 0 8 0
1.66759 1.4129156 -0.73845243 0 9 0
1.8133845 1.5364444 -0.74185055 0 10 0
1.9748806 1.6732768 -0.74226856 0 11 0
2.1490061 1.82081 -0.7372241 0 12 0
2.378525 2.0152767 -0.73888737 0 13 0
2.6558962 2.2502878 -0.73993498 0 14 0
3.0054874 2.5464892 -0.74195856 0 15 0
3.4419041 2.9162564 -0.74142784 0 16 0
4.0136614 3.4006948 -0.73930055 0 17 0
4.8356915 4.0971847 -0.74074841 0 18 0
6.051033 5.1269193 -0.74027956 0 19 0
8.0805426 6.8464818 -0.74041146 0 20 0
12.147526 10.292356 -0.74122107 0 21 0
24.313393 20.60025 -0.740924 0 22 0
0.9349125 0.83937263 -0.74512118 0 0 0
0.97845685 0.87846714 -0.73901272 0 1 0
1.0368261 0.93087161 -0.74096733 0 2 0
1.0993367 0.98699415 -0.74206209 0 3 0
1.1693364 1.0498405 -0.74403059 0 4 0
1.2438518 1.1167411 -0.74432641 0 5 0
1.3277915 1.1921028 -0.74529147 0 6 0
1.4152558 1.270629 -0.74288666 0 7 0
1.512803 1.3582077 -0.74003422 0 8 0
1.6319649 1.4651923 -0.74099171 0 9 0
1.7688143 1.588057 -0.74195594 0 10 0
1.9293964 1.732229 -0.74355143 0 11 0
2.1071281 1.8917981 -0.74117732 0 12 0
2.3318655 2.0935693 -0.74275112 0 13 0
2.5931978 2.3281958 -0.7407769 0 14 0
2.935648 2.6356504 -0.74308419 0 15 0
3.3613641 3.0178623 -0.74242914 0 16 0
3.9288442 3.5273507 -0.74201798 0 17 0
4.711885 4.2303715 -0.74007571 0 18 0
5.9065585 5.3029599 -0.74091786 0 19 0
7.88129 7.075891 -0.74045593 0 20 0
11.836601 10.627005 -0.74055326 0 21 0
23.717749 21.294003 -0.74108988 0 22 0
0.90525144 0.86090338 -0.74086732 0 0 0
0.95412087 0.90737867 -0.73999518 0 1 0
1.0129099 0.96328771 -0.74332577 0 2 0
1.070423 1.0179832 -0.74195939 0 3 0
1.131833 1.0763847 -0.73951834 0 4 0
1.2059195 1.1468418 -0.7410174 0 5 0
1.2816069 1.2188213 -0.73869711 0 6 0
1.3792123 1.3116449 -0.74341959 0 7 0
1.4754225 1.4031419 -0.7411415 0 8 0
1.5912824 1.5133258 -0.74193364 0 9 0
1.715946 1.6318821 -0.73911953 0 10 0
1.863456 1.7721657 -0.73743534 0 11 0
2.0466213 1.9463576 -0.73923737 0 12 0
2.2674322 2.1563513 -0.74163359 0 13 0
2.5289977 2.4051025 -0.74184889 0 14 0
2.8520079 2.7122886 -0.7413103 0 15 0
3.2597718 3.1000762 -0.73933607 0 16 0
3.8230669 3.6357756 -0.74144131 0 17 0
4.5887251 4.3639245 -0.74009722 0 18 0
5.7517037 5.4699287 -0.74087906 0 19 0
7.6853027 7.3088012 -0.74144363 0 20 0
11.53758 10.972357 -0.74124074 0 21 0
23.097145 21.96562 -0.74109006 0 22 0
0.87892711 0.88525283 -0.73981041 0 0 0
0.92786568 0.93454361 -0.74012828 0 1 0
0.97573024 0.98275268 -0.73643523 0 2 0
1.0392612 1.0467409 -0.74087656 0 3 0
1.1044374 1.112386 -0.74217117 0 4 0
1.177946 1.1864238 -0.74444366 0 5 0
1.2465476 1.2555192 -0.73895305 0 6 0
1.328279 1.3378388 -0.73635727 0 7 0
1.4289469 1.439231 -0.73823935 0 8 0
1.5383444 1.5494159 -0.7376796 0 9 0
1.6671197 1.6791182 -0.73854047 0 10 0
1.8282139 1.8413717 -0.74409473 0 11 0
1.9928021 2.0071445 -0.74029875 0 12 0
2.1952763 2.211076 -0.73848325 0 13 0
2.4509964 2.4686363 -0.73944539 0 14 0
2.7677493 2.7876692 -0.73989904 0 15 0
3.1769228 3.1997874 -0.74106747 0 16 0
3.6996038 3.7262301 -0.73793226 0 17 0
4.4692369 4.5014024 -0.74135554 0 18 0
5.5821114 5.6222863 -0.7395128 0 19 0
7.4642625 7.5179834 -0.7406286 0 20 0
11.206264 11.286916 -0.74046022 0 21 0
22.4389 22.600395 -0.74047548 0 22 0
0.85827655 0.91554826 -0.7442379 0 0 0
0.90083015 0.96094149 -0.74025565 0 1 0
0.94666493 1.0098348 -0.73606807 0 2 0
1.0099819 1.0773768 -0.74173993 0 3 0
1.0754448 1.147208 -0.74450582 0 4 0
1.1330107 1.2086152 -0.73766202 0 5 0
1.2203074 1.301737 -0.74523652 0 6 0
1.2954755 1.3819211 -0.73985296 0 7 0
1.398953 1.4923034 -0.74456251 0 8 0
1.4987317 1.5987403 -0.74038064 0 9 0
1.6281992 1.736847 -0.74307382 0 10 0
1.7610152 1.8785256 -0.73838222 0 11 0
1.9320531 2.0609767 -0.7393989 0 12 0
2.147526 2.290828 -0.74422944 0 13 0
2.3747194 2.5331817 -0.73806167 0 14 0
2.689182 2.868628 -0.74059856 0 15 0
3.0728035 3.277848 -0.73841888 0 16 0
3.6020381 3.8423979 -0.74016154 0 17 0
4.3364463 4.6258121 -0.74104404 0 18 0
5.4231772 5.7850595 -0.74014693 0 19 0
7.2490191 7.7327375 -0.74098557 0 20 0
10.898179 11.625401 -0.74184263 0 21 0
21.801651 23.256449 -0.74116588 0 22 0
0.82541239 0.93273294 -0.7386474 0 0 0
0.8724069 0.9858377 -0.73984301 0 1 0
0.92459512 1.0448115 -0.74191636 0 2 0
0.98273671 1.1105126 -0.74482954 0 3 0
1.0396725 1.1748513 -0.74277651 0 4 0
1.1080654 1.2521367 -0.74450988 0 5 0
1.1659975 1.3176011 -0.73485923 0 6 0
1.253399 1.4163666 -0.73873252 0 7 0
1.3450478 1.5199317 -0.7387839 0 8 0
1.4440867 1.6318476 -0.73621738 0 9 0
1.5753984 1.7802325 -0.74198735 0 10 0
1.7046481 1.9262874 -0.73762316 0 11 0
1.8799294 2.1243589 -0.74247694 0 12 0
2.0664697 2.3351531 -0.73905897 0 13 0
2.3087101 2.6088896 -0.74051082 0 14 0
2.6116142 2.9511778 -0.74225533 0 15 0
2.9843073 3.3723285 -0.74010485 0 16 0
3.4916148 3.9455965 -0.74043375 0 17 0
4.1972265 4.7429519 -0.74020857 0 18 0
5.259172 5.9429722 -0.74073547 0 19 0
7.0223656 7.9354172 -0.74079078 0 20 0
10.553152 11.925279 -0.74134731 0 21 0
21.111204 23.856092 -0.74066305 0 22 0
0.79610902 0.95338428 -0.73660541 0 0 0
0.84511757 1.0120747 -0.74102658 0 1 0
0.89314163 1.0695862 -0.74100286 0 2 0
0.94491798 1.1315912 -0.74047434 0 3 0
0.99677318 1.1936905 -0.7362988 0 4 0
1.0704452 1.2819167 -0.74364495 0 5 0
1.1353397 1.3596317 -0.73982424 0 6 0
1.2122092 1.4516871 -0.73870599 0 7 0
1.3021299 1.5593721 -0.7394864 0 8 0
1.4043161 1.6817455 -0.74024218 0 9 0
1.5249798 1.826247 -0.74261951 0 10 0
1.6580336 1.9855862 -0.74180418 0 11 0
1.8187197 2.1780167 -0.74268275 0 12 0
1.999252 2.3942139 -0.73928815 0 13 0
2.2392311 2.6816022 -0.74260372 0 14 0
2.5126851 3.0090785 -0.73837763 0 15 0
2.8934481 3.4650629 -0.74192762 0 16 0
3.3732734 4.03968 -0.73961818 0 17 0
4.0628328 4.8654652 -0.74082702 0 18 0
5.0893073 6.0947247 -0.7411406 0 19 0
6.7908568 8.1324234 -0.74068385 0 20 0
10.197437 12.211991 -0.74067336 0 21 0
20.419855 24.453896 -0.74072415 0 22 0
0.77151018 0.97973806 -0.7395559 0 0 0
0.80912566 1.0275058 -0.73502076 0 1 0
0.85464191 1.0853068 -0.73459959 0 2 0
0.90915358 1.1545309 -0.73810834 0 3 0
0.96930206 1.2309133 -0.74179494 0 4 0
1.0290033 1.3067276 -0.74060214 0 5 0
1.0952979 1.3909149 -0.73943835 0 6 0
1.1787505 1.496891 -0.74418837 0 7 0
1.2655128 1.6070703 -0.74457663 0 8 0
1.3559924 1.72197 -0.74051386 0 9 0
1.4700763 1.8668448 -0.74166727 0 10 0
1.5960975 2.0268784 -0.73981363 0 11 0
1.7487321 2.2207086 -0.73982298 0 12 0
1.9346443 2.4567981 -0.74116403 0 13 0
2.1588662 2.7415364 -0.74173856 0 14 0
2.4404001 3.0990555 -0.74296516 0 15 0
2.7799637 3.530266 -0.73850244 0 16 0
3.2598512 4.1396737 -0.7404927 0 17 0
3.9175377 4.9748673 -0.74006188 0 18 0
4.9135747 6.2397308 -0.74132127 0 19 0
6.5517797 8.3200817 -0.74034572 0 20 0
9.8415546 12.497756 -0.74057043 0 21 0
19.702614 25.020279 -0.74044818 0 22 0
0.74505675 1.0041206 -0.7415157 0 0 0
0.78582102 1.059059 -0.74115479 0 1 0
0.82770199 1.1155025 -0.73865592 0 2 0
0.87555522 1.1799947 -0.73801994 0 3 0
0.941594 1.2689959 -0.74815243 0 4 0
0.99907166 1.346459 -0.74656308 0 5 0
1.0572646 1.4248862 -0.74106282 0 6 0
1.1330242 1.5269883 -0.74268025 0 7 0
1.2199173 1.6440949 -0.7452035 0 8 0
1.3072129 1.7617443 -0.74118048 0 9 0
1.4157674 1.9080443 -0.74158823 0 10 0
1.5493776 2.0881121 -0.74562746 0 11 0
1.6834474 2.2687993 -0.73944479 0 12 0
1.868637 2.5183811 -0.74325836 0 13 0
2.0752406 2.796823 -0.74027878 0 14 0
2.3467093 3.1626842 -0.74176854 0 15 0
2.6829324 3.6158154 -0.73998719 0 16 0
3.1348159 4.2248235 -0.73932731 0 17 0
3.7744553 5.0868721 -0.74030524 0 18 0
4.7368088 6.3838458 -0.74198735 0 19 0
6.3109875 8.5053825 -0.74041343 0 20 0
9.4839811 12.781658 -0.74096042 0 21 0
18.981993 25.582226 -0.7406522 0 22 0
0.7162208 1.0254745 -0.74180084 0 0 0
0.75726384 1.0842394 -0.74326193 0 1 0
0.79784232 1.142339 -0.74095976 0 2 0
0.84195167 1.205494 -0.73855197 0 3 0
0.893978 1.2799846 -0.73920107 0 4 0
0.95797145 1.3716096 -0.74495804 0 5 0
1.0203288 1.4608918 -0.74425352 0 6 0
1.0901657 1.5608834 -0.74364316 0 7 0
1.1712588 1.6769912 -0.7445721 0 8 0
1.2506852 1.7907127 -0.73796368 0 9 0
1.3631591 1.9517512 -0.743065 0 10 0
1.4749113 2.1117566 -0.73865205 0 11 0
1.6200399 2.3195496 -0.74052775 0 12 0
1.7969285 2.5728159 -0.74379802 0 13 0
1.9912577 2.8510537 -0.73920292 0 14 0
2.2520933 3.2245142 -0.74080658 0 15 0
2.58744 3.7046587 -0.74266708 0 16 0
3.0221312 4.3270435 -0.74173266 0 17 0
3.6301541 5.1976018 -0.74095351 0 18 0
4.5394478 6.4995151 -0.73998517 0 19 0
6.0680652 8.6881666 -0.7408607 0 20 0
9.1148014 13.050439 -0.74107283 0 21 0
18.246078 26.12447 -0.74088609 0 22 0
0.68721306 1.0466708 -0.7425617 0 0 0
0.73030972 1.1123098 -0.74782938 0 1 0
0.76414132 1.1638376 -0.7403754 0 2 0
0.81352562 1.2390531 -0.74450207 0 3 0
0.86283636 1.3141565 -0.74432909 0 4 0
0.9072113 1.3817426 -0.73601806 0 5 0
0.97378588 1.48314 -0.74104565 0 6 0
1.0301865 1.569042 -0.73314303 0 7 0
1.1140565 1.6967813 -0.73885942 0 8 0
1.2072084 1.8386579 -0.74313891 0 9 0
1.3074319 1.9913049 -0.74353278 0 10 0
1.4197563 2.1623824 -0.74180293 0 11 0
1.5571871 2.3716986 -0.74260378 0 12 0
1.7162855 2.6140156 -0.74116433 0 13 0
1.9100902 2.909193 -0.73975998 0 14 0
2.1528916 3.2789958 -0.73882473 0 15 0
2.4695015 3.7612133 -0.73949277 0 16 0
2.8900969 4.4018078 -0.74002635 0 17 0
3.4782641 5.2976251 -0.74067765 0 18 0
4.3507533 6.6264834 -0.73992068 0 19 0
5.8134885 8.8543262 -0.74049807 0 20 0
8.7371197 13.307208 -0.74111009 0 21 0
17.494076 26.644629 -0.74109453 0 22 0
0.6571418 1.0663378 -0.74282938 0 0 0
0.68765599 1.115853 -0.73664027 0 1 0
0.73031205 1.1850705 -0.74024516 0 2 0
0.77316737 1.2546114 -0.74021345 0 3 0
0.8184011 1.3280118 -0.7385698 0 4 0
0.87927818 1.4267964 -0.74626851 0 5 0
0.93468034 1.5166969 -0.74410361 0 6 0
0.99836725 1.6200411 -0.74327916 0 7 0
1.0710427 1.7379709 -0.74310511 0 8 0
1.1519077 1.8691897 -0.74181265 0 9 0
1.2412872 2.014225 -0.73848575 0 10 0
1.3547558 2.1983495 -0.74049914 0 11 0
1.4866049 2.4122999 -0.74165297 0 12 0
1.6377985 2.6576402 -0.73990214 0 13 0
1.8250436 2.9614811 -0.73943329 0 14 0
2.0654685 3.3516164 -0.74152642 0 15 0
2.3660111 3.839304 -0.74119115 0 16 0
2.7694986 4.4940395 -0.7418648 0 17 0
3.3290036 5.4019427 -0.74160004 0 18 0
4.1691532 6.7652459 -0.74174976 0 19 0
5.5556998 9.0151815 -0.7403118 0 20 0
8.3487072 13.547369 -0.74083674 0 21 0
16.712107 27.11858 -0.7406323 0 22 0
0.62481123 1.0822026 -0.74108487 0 0 0
0.65815663 1.1399585 -0.73978019 0 1 0
0.70071989 1.21368 -0.7452479 0 2 0
0.73629004 1.2752892 -0.73964202 0 3 0
0.78421122 1.3582909 -0.74258739 0 4 0
0.83746797 1.4505341 -0.74580652 0 5 0
0.88696849 1.5362715 -0.74091381 0 6 0
0.94913119 1.6439401 -0.74144179 0 7 0
1.0135385 1.7554966 -0.73785812 0 8 0
1.1003672 1.9058881 -0.74353838 0 9 0
1.1904446 2.0619063 -0.74313587 0 10 0
1.2999295 2.2515395 -0.74554271 0 11 0
1.4141248 2.449331 -0.74025625 0 12 0
1.5662692 2.7128522 -0.74245369 0 13 0
1.7417655 3.0168202 -0.74046516 0 14 0
1.961628 3.3976324 -0.73894799 0 15 0
2.2581427 3.9112098 -0.74225646 0 16 0
2.6381085 4.5693288 -0.74149024 0 17 0
3.1666286 5.4847503 -0.74018759 0 18 0
3.9724352 6.8804455 -0.74157578 0 19 0
5.2959533 9.1728411 -0.74047297 0 20 0
7.9564185 13.780893 -0.74081546 0 21 0
15.937497 27.604498 -0.74110669 0 22 0
0.59506351 1.1025599 -0.74302512 0 0 0
0.62279433 1.1539408 -0.73695189 0 1 0
0.66277522 1.2280192 -0.74206787 0 2 0
0.70232779 1.3013039 -0.74273443 0 3 0
0.73718971 1.3658975 -0.73487735 0 4 0
0.79311413 1.4695169 -0.74355781 0 5 0
0.84661537 1.5686463 -0.74450344 0 6 0
0.90733284 1.6811464 -0.74617124 0 7 0
0.96412688 1.7863768 -0.73890376 0 8 0
1.0411739 1.9291329 -0.74064493 0 9 0
1.1302887 2.0942488 -0.74279588 0 10 0
1.2355437 2.2892699 -0.74598813 0 11 0
1.3447741 2.4916568 -0.74107939 0 12 0
1.4839722 2.7495692 -0.74054223 0 13 0
1.648132 3.0537317 -0.73761207 0 14 0
1.8700442 3.4649005 -0.74160075 0 15 0
2.1375403 3.9605293 -0.73967004 0 16 0
2.5062685 4.6437249 -0.74158591 0 17 0
3.0105636 5.578105 -0.74082136 0 18 0
3.7694659 6.9842324 -0.74079764 0 19 0
5.0314713 9.3225317 -0.74059558 0 20 0
7.5572829 14.002467 -0.74076283 0 21 0
15.13263 28.038404 -0.74079168 0 22 0
0.56474221 1.1222606 -0.74507278 0 0 0
0.59396571 1.1803339 -0.7426157 0 1 0
0.63215476 1.2562234 -0.74784058 0 2 0
0.66526902 1.3220283 -0.74336016 0 3 0
0.70316505 1.3973358 -0.74062973 0 4 0
0.74936551 1.4891456 -0.74230266 0 5 0
0.79739326 1.5845867 -0.74090302 0 6 0
0.85320014 1.6954867 -0.74136323 0 7 0
0.91764933 1.8235607 -0.74308532 0 8 0
0.99022019 1.9677742 -0.74426371 0 9 0
1.0648017 2.1159832 -0.73936194 0 10 0
1.1624271 2.3099852 -0.74156255 0 11 0
1.2759858 2.53565 -0.74296695 0 12 0
1.4086649 2.7993112 -0.74274546 0 13 0
1.5720991 3.124089 -0.74340278 0 14 0
1.7660965 3.5096023 -0.74001575 0 15 0
2.0276449 4.0293536 -0.74135095 0 16 0
2.3728187 4.7152858 -0.74183393 0 17 0
2.8544061 5.6723008 -0.74214667 0 18 0
3.5753708 7.1050076 -0.74241906 0 19 0
4.7688746 9.4767494 -0.7416693 0 20 0
7.1569486 14.22235 -0.74122429 0 21 0
14.328751 28.474218 -0.74113661 0 22 0
0.52839583 1.1296182 -0.73958552 0 0 0
0.56297946 1.2035519 -0.74675107 0 1 0
0.58551991 1.2517394 -0.73486549 0 2 0
0.62318188 1.3322542 -0.73874974 0 3 0
0.66361856 1.4187008 -0.74155432 0 4 0
0.70437527 1.5058315 -0.74023908 0 5 0
0.74627274 1.5954009 -0.73564273 0 6 0
0.80950582 1.7305824 -0.74624372 0 7 0
0.86390972 1.8468883 -0.74218279 0 8 0
0.9233827 1.9740312 -0.73630434 0 9 0
1.0051819 2.1489036 -0.74048042 0 10 0
1.0992776 2.3500638 -0.74399501 0 11 0
1.1942266 2.5530484 -0.73771906 0 12 0
1.3164039 2.8142419 -0.73638004 0 13 0
1.4764199 3.1563284 -0.74068701 0 14 0
1.6627512 3.554672 -0.73915309 0 15 0
1.9092726 4.0816917 -0.74059445 0 16 0
2.2365928 4.781445 -0.74183887 0 17 0
2.6807866 5.7310543 -0.73946357 0 18 0
3.3667717 7.1975708 -0.74168974 0 19 0
4.4878955 9.5943375 -0.74048746 0 20 0
6.745852 14.421455 -0.74120641 0 21 0
13.496243 28.852615 -0.74059951 0 22 0
0.49813554 1.1497624 -0.74310881 0 0 0
0.52845126 1.219735 -0.74707484 0 1 0
0.55636615 1.2841662 -0.7442224 0 2 0
0.5859493 1.3524481 -0.7403183 0 3 0
0.61639321 1.4227167 -0.73410493 0 4 0
0.66498297 1.5348682 -0.74482507 0 5 0
0.70644754 1.630574 -0.74220723 0 6 0
0.75077724 1.7328928 -0.73764551 0 7 0
0.81328917 1.8771784 -0.7446692 0 8 0
0.87582099 2.0215101 -0.74433231 0 9 0
0.93440938 2.1567397 -0.73363829 0 10 0
1.0241486 2.3638699 -0.73875678 0 11 0
1.1289514 2.6057687 -0.74328506 0 12 0
1.2347564 2.8499801 -0.73615628 0 13 0
1.386894 3.201134 -0.74155605 0 14 0
1.5628822 3.607338 -0.74047303 0 15 0
1.7933431 4.1392722 -0.74139863 0 16 0
2.092828 4.8305225 -0.73983026 0 17 0
2.5243249 5.8264747 -0.74212265 0 18 0
3.1507864 7.2724299 -0.7397815 0 19 0
4.2091985 9.7153845 -0.74020207 0 20 0
6.3235197 14.595516 -0.74052048 0 21 0
12.67154 29.247583 -0.74109828 0 22 0
0.45951301 1.1499773 -0.73442227 0 0 0
0.48118863 1.2042227 -0.72881562 0 1 0
0.5199784 1.301298 -0.74519593 0 2 0
0.5503968 1.3774232 -0.74503636 0 3 0
0.57681644 1.4435408 -0.73600549 0 4 0
0.615906 1.5413665 -0.73909682 0 5 0
0.65267092 1.6333743 -0.73465371 0 6 0
0.70685846 1.7689841 -0.74406725 0 7 0
0.75213242 1.8822867 -0.73782921 0 8 0
0.81658596 2.0435882 -0.7435267 0 9 0
0.87632012 2.1930788 -0.73714125 0 10 0
0.95678014 2.394438 -0.73942441 0 11 0
1.0444794 2.6139143 -0.73675507 0 12 0
1.1589068 2.9002802 -0.74025333 0 13 0
1.2933402 3.2367132 -0.74089491 0 14 0
1.4602499 3.6544213 -0.74123055 0 15 0
1.6704335 4.1804271 -0.73987901 0 16 0
1.9556416 4.8941889 -0.74068058 0 17 0
2.3537219 5.8904247 -0.74135923 0 18 0
2.9498584 7.3823161 -0.74204254 0 19 0
3.9353571 9.8486252 -0.74144363 0 20 0
5.9002542 14.765977 -0.74027324 0 21 0
11.823859 29.590393 -0.74088156 0 22 0
0.4284628 1.1684881 -0.73808736 0 0 0
0.45298329 1.2353595 -0.73948801 0 1 0
0.47779137 1.3030151 -0.73802334 0 2 0
0.50577426 1.3793292 -0.7379126 0 3 0
0.53696233 1.4643841 -0.73847175 0 4 0
0.57473165 1.5673871 -0.74335903 0 5 0
0.61002928 1.6636494 -0.74009192 0 6 0
0.65026498 1.7733788 -0.73776269 0 7 0
0.70184678 1.9140509 -0.74207956 0 8 0
0.75406969 2.0564713 -0.74003577 0 9 0
0.81401914 2.2199633 -0.73802173 0 10 0
0.88652235 2.4176912 -0.73844463 0 11 0
0.97634453 2.6626511 -0.74228889 0 12 0
1.072304 2.9243484 -0.73823804 0 13 0
1.2004396 3.2737949 -0.7411921 0 14 0
1.3532425 3.6905134 -0.7403692 0 15 0
1.5530406 4.2353954 -0.74141431 0 16 0
1.8181652 4.9584336 -0.74220121 0 17 0
2.1815052 5.9493217 -0.74058759 0 18 0
2.7283106 7.4405494 -0.73972118 0 19 0
3.6556046 9.9694319 -0.74233478 0 20 0
5.4801993 14.945399 -0.74107867 0 21 0
10.97104 29.919819 -0.74094152 0 22 0
0.39278483 1.1743726 -0.73438179 0 0 0
0.41872427 1.2519279 -0.74190724 0 1 0
0.44187865 1.3211563 -0.74081087 0 2 0
0.46700427 1.3962784 -0.73950577 0 3 0
0.49679065 1.4853356 -0.7415424 0 4 0
0.5303427 1.5856515 -0.74449641 0 5 0
0.56326336 1.6840799 -0.7416842 0 6 0
0.60124385 1.7976363 -0.74037117 0 7 0
0.64642608 1.932725 -0.74182177 0 8 0
0.67639166 2.0223179 -0.72046357 0 9 0
0.67862636 2.0289993 -0.66778678 0 10 0
0.67185897 2.0087657 -0.60740572 0 11 0
0.67257726 2.0109134 -0.55498922 0 12 0
0.67577356 2.0204699 -0.50495446 0 13 0
0.67631352 2.0220842 -0.4532221 0 14 0
0.67563051 2.0200422 -0.4011941 0 15 0
0.67633057 2.0221353 -0.35043678 0 16 0
0.67465132 2.0171146 -0.29890984 0 17 0
0.67035383 2.0042655 -0.2469999 0 18 0
0.67632776 2.0221269 -0.19902334 0 19 0
0.67800152 2.0271313 -0.14943208 0 20 0
0.67292464 2.0119519 -0.09876588 0 21 0
0.67334259 2.0132015 -0.049356546 0 22 0
0.67142415 2.0074656 6.0430462e-05 0 23 0
0.67435336 2.0162237 0.04955209 0 24 0
0.67799431 2.0271096 0.099632263 0 25 0
0.6756081 2.0199752 0.14902675 0 26 0
0.67304039 2.0122981 0.19817816 0 27 0
0.67594194 2.0209732 0.24918225 0 28 0
0.36375391 1.2010694 -0.74424195 0 0 0
0.38158756 1.2599539 -0.73986924 0 1 0
0.40319324 1.331293 -0.73970211 0 2 0
0.42874619 1.4156655 -0.74295115 0 3 0
0.45309803 1.4960722 -0.74010617 0 4 0
0.48577666 1.603973 -0.74624592 0 5 0
0.51220483 1.6912354 -0.73805803 0 6 0
0.54522926 1.8002778 -0.73471224 0 7 0
0.59011304 1.9484785 -0.74106306 0 8 0
0.60994548 2.0139627 -0.71095824 0 9 0
0.61317593 2.0246291 -0.660285 0 10 0
0.60583705 2.000397 -0.59937119 0 11 0
0.61244577 2.0222185 -0.55303085 0 12 0
0.60795844 2.0074015 -0.49712336 0 13 0
0.61411577 2.0277324 -0.45035246 0 14 0
0.60780537 2.0068963 -0.39495635 0 15 0
0.60674644 2.0033998 -0.34403068 0 16 0
0.61315501 2.0245602 -0.29728323 0 17 0
0.60517693 1.9982173 -0.24401376 0 18 0
0.60994488 2.0139606 -0.1964159 0 19 0
0.61070943 2.0164852 -0.14729469 0 20 0
0.61269653 2.0230463 -0.098406821 0 21 0
0.60882545 2.0102644 -0.048836075 0 22 0
0.60893738 2.0106342 5.9975089e-05 0 23 0
0.60940725 2.0121853 0.049002849 0 24 0
0.61095297 2.0172892 0.098247387 0 25 0
0.61193669 2.0205374 0.1477118 0 26 0
0.61244881 2.0222285 0.19734392 0 27 0
0.61175036 2.0199223 0.24678642 0 28 0
0.3297331 1.2131556 -0.74556065 0 0 0
0.34928218 1.2850807 -0.74842995 0 1 0
0.36453724 1.341207 -0.73909366 0 2 0
0.38474911 1.4155707 -0.73680335 0 3 0
0.40854883 1.5031348 -0.73749626 0 4 0
0.43295941 1.5929463 -0.73503238 0 5 0
0.46434292 1.7084126 -0.73943436 0 6 0
0.49592736 1.8246183 -0.7385335 0 7 0
0.53206378 1.9575715 -0.73841006 0 8 0
0.55147129 2.0289757 -0.71037871 0 9 0
0.54422212 2.0023046 -0.64764422 0 10 0
0.54976434 2.0226955 -0.60107768 0 11 0
0.54621011 2.0096188 -0.54507387 0 12 0
0.54825819 2.017154 -0.4954381 0 13 0
0.54842645 2.0177732 -0.444462 0 14 0
0.5476535 2.0149293 -0.39328229 0 15 0
0.54915601 2.0204575 -0.34411189 0 16 0
0.54769111 2.0150676 -0.29346058 0 17 0
0.55053574 2.0255337 -0.24531916 0 18 0
0.54847187 2.0179403 -0.19518858 0 19 0
0.55049068 2.0253677 -0.14672913 0 20 0
0.5470134 2.0125742 -0.097093843 0 21 0
0.55005383 2.0237606 -0.048760384 0 22 0
0.54933435 2.0211136 5.9792812e-05 0 23 0
0.54810965 2.0166075 0.048707422 0 24 0
0.54664373 2.011214 0.097147487 0 25 0
0.54517806 2.0058217 0.14543235 0 26 0
0.55027479 2.0245736 0.19595101 0 27 0
0.54684424 2.0119519 0.2437949 0 28 0
0.29352269 1.216835 -0.74233949 0 0 0
0.31195846 1.2932628 -0.74767333 0 1 0
0.32748559 1.3576325 -0.74266034 0 2 0
0.34070295 1.4124267 -0.72977722 0 3 0
0.36410502 1.5094429 -0.73516178 0 4 0
0.39249465 1.6271356 -0.74530399 0 5 0
0.41607043 1.724872 -0.74108511 0 6 0
0.44068792 1.8269269 -0.7340467 0 7 0
0.47309363 1.9612689 -0.73438108 0 8 0
0.48621517 2.0156658 -0.70054489 0 9 0
0.48817304 2.0237825 -0.64979231 0 10 0
0.4849121 2.0102637 -0.59300381 0 11 0
0.48833954 2.0244727 -0.54507715 0 12 0
0.4864454 2.0166202 -0.49167579 0 13 0
0.48517632 2.011359 -0.43980107 0 14 0
0.48701447 2.0189795 -0.39118376 0 15 0
0.48568952 2.0134866 -0.34041062 0 16 0
0.48509443 2.0110197 -0.29072398 0 17 0
0.48523313 2.0115945 -0.24184483 0 18 0
0.48596036 2.0146096 -0.19343778 0 19 0
0.4887723 2.0262668 -0.14571807 0 20 0
0.48390618 2.0060937 -0.096071675 0 21 0
0.48600164 2.0147805 -0.048188135 0 22 0
0.48657843 2.0171719 5.9238697e-05 0 23 0
0.48500106 2.0106325 0.048207078 0 24 0
0.48536161 2.0121272 0.096479058 0 25 0
0.4863562 2.0162504 0.14511676 0 26 0
0.48769093 2.0217838 0.19424643 0 27 0
0.48273394 2.0012338 0.24071836 0 28 0
0.25901279 1.2272062 -0.74382555 0 0 0
0.27559018 1.3057501 -0.7500115 0 1 0
0.28702864 1.3599457 -0.73911542 0 2 0
0.30193162 1.4305563 -0.73436511 0 3 0
0.32298371 1.5303015 -0.74050146 0 4 0
0.34337014 1.6268926 -0.74037421 0 5 0
0.36533791 1.7309761 -0.73889881 0 6 0
0.3921096 1.8578207 -0.741633 0 7 0
0.42034307 1.9915915 -0.74091315 0 8 0
0.42399678 2.0089028 -0.69367981 0 9 0
0.42651451 2.0208318 -0.64464945 0 10 0
0.42331338 2.0056648 -0.58782154 0 11 0
0.42618346 2.0192633 -0.54015911 0 12 0
0.42671043 2.02176 -0.48974159 0 13 0
0.42554888 2.0162566 -0.43802124 0 14 0
0.42303795 2.0043597 -0.38584006 0 15 0
0.4245131 2.011349 -0.33785045 0 16 0
0.42387217 2.0083122 -0.28845525 0 17 0
0.42126879 1.9959775 -0.23841563 0 18 0
0.42841351 2.0298293 -0.19363892 0 19 0
0.42479137 2.0126674 -0.14380419 0 20 0
0.42403147 2.0090671 -0.09559194 0 21 0
0.42433727 2.0105159 -0.047775209 0 22 0
0.42298937 2.0041296 5.8475118e-05 0 23 0
0.42296433 2.0040109 0.047737639 0 24 0
0.428231 2.0289645 0.096657328 0 25 0
0.42328721 2.0055408 0.14341259 0 26 0
0.42404807 2.0091457 0.19178404 0 27 0
0.42797711 2.0277617 0.24233213 0 28 0
0.22409382 1.2362925 -0.74512815 0 0 0
0.2358086 1.3009212 -0.74304479 0 1 0
0.24755956 1.3657496 -0.73810464 0 2 0
0.26475745 1.4606278 -0.74559468 0 3 0
0.27796692 1.5335023 -0.73788655 0 4 0
0.29534331 1.6293654 -0.73733878 0 5 0
0.31444946 1.7347711 -0.73636353 0 6 0
0.33894905 1.8699318 -0.74227899 0 7 0
0.36290014 2.0020664 -0.74063069 0 8 0
0.36444148 2.0105698 -0.69035977 0 9 0
0.36802697 2.0303504 -0.64405155 0 10 0
0.36499411 2.0136185 -0.58684111 0 11 0
0.36539552 2.0158331 -0.53621572 0 12 0
0.36418238 2.0091405 -0.48395374 0 13 0
0.36592242 2.0187399 -0.43609983 0 14 0
0.3637704 2.0068676 -0.38415504 0 15 0
0.36500058 2.0136542 -0.33633968 0 16 0
0.36339244 2.0047824 -0.28633249 0 17 0
0.36494488 2.0133469 -0.2391409 0 18 0
0.36467746 2.0118716 -0.19084887 0 19 0
0.36819634 2.0312848 -0.14432 0 20 0
0.36434951 2.0100625 -0.095102638 0 21 0
0.36374155 2.0067084 -0.047417153 0 22 0
0.36393118 2.0077546 5.8252172e-05 0 23 0
0.36687148 2.0239758 0.047942679 0 24 0
0.36457926 2.0113299 0.095279574 0 25 0
0.36303687 2.0028207 0.14241445 0 26 0
0.36551985 2.0165188 0.19140776 0 27 0
0.36458731 2.0113745 0.23902492 0 28 0
0.18737137 1.2345332 -0.74052197 0 0 0
0.19765325 1.3022774 -0.74027485 0 1 0
0.20801553 1.3705513 -0.73717004 0 2 0
0.22052914 1.4529997 -0.73816633 0 3 0
0.23444365 1.5446782 -0.73972213 0 4 0
0.24994309 1.6467994 -0.74167687 0 5 0
0.26590011 1.7519354 -0.74010551 0 6 0
0.28409639 1.871825 -0.73948967 0 7 0
0.30472878 2.0077655 -0.73919958 0 8 0
0.30529994 2.0115287 -0.68739766 0 9 0
0.30544829 2.0125062 -0.63534898 0 10 0
0.30530012 2.0115299 -0.58343881 0 11 0
0.30543959 2.012449 -0.53276449 0 12 0
0.3042677 2.0047278 -0.48058969 0 13 0
0.30635825 2.0185018 -0.43397045 0 14 0
0.30567837 2.0140224 -0.38368741 0 15 0
0.3054353 2.0124209 -0.33453184 0 16 0
0.30658409 2.0199897 -0.28712964 0 17 0
0.30493119 2.0090992 -0.23749918 0 18 0
0.30479938 2.0082309 -0.18959567 0 19 0
0.30838853 2.0318787 -0.14367424 0 20 0
0.30668646 2.0206645 -0.09514866 0 21 0
0.30706498 2.0231581 -0.047578037 0 22 0
0.30575481 2.0145259 5.8170102e-05 0 23 0
0.30709106 2.02333 0.04769899 0 24 0
0.30495185 2.0092354 0.094726786 0 25 0
0.3069458 2.022373 0.14311945 0 26 0
0.30334011 1.9986161 0.18880437 0 27 0
0.30510658 2.0102549 0.23775347 0 28 0
0.15062839 1.2291869 -0.7344197 0 0 0
0.16093285 1.3132753 -0.74359506 0 1 0
0.16923715 1.3810416 -0.7398954 0 2 0
0.17919816 1.4623274 -0.73998779 0 3 0
0.1905427 1.5549033 -0.74169475 0 4 0
0.20373172 1.6625309 -0.74582165 0 5 0
0.21571676 1.7603335 -0.74073309 0 6 0
0.22884716 1.8674827 -0.73487705 0 7 0
0.24566673 2.0047371 -0.73518616 0 8 0
0.24795961 2.023448 -0.68875545 0 9 0
0.24718155 2.0170984 -0.63429809 0 10 0
0.24560705 2.00425 -0.57904446 0 11 0
0.24802551 2.0239856 -0.53371453 0 12 0
0.24687991 2.014637 -0.48106867 0 13 0
0.2481707 2.0251706 -0.43369442 0 14 0
0.24614893 2.008672 -0.38116544 0 15 0
0.24799524 2.0237386 -0.33509219 0 16 0
0.24659555 2.0123165 -0.28491572 0 17 0
0.24690247 2.0148211 -0.23724027 0 18 0
0.24875279 2.0299203 -0.19089082 0 19 0
0.24731964 2.0182254 -0.14214842 0 20 0
0.24697304 2.0153971 -0.094527967 0 21 0
0.24787578 2.0227637 -0.047381967 0 22 0
0.24707794 2.016253 5.7991354e-05 0 23 0
0.24770528 2.0213723 0.047465716 0 24 0
0.24645026 2.011131 0.09444382 0 25 0
0.24733007 2.0183105 0.14227109 0 26 0
0.24731724 2.0182059 0.18990628 0 27 0
0.24683678 2.0142851 0.23729463 0 28 0
0.11563975 1.2365766 -0.73654884 0 0 0
0.12371056 1.3228804 -0.74671596 0 1 0
0.12965828 1.3864816 -0.74051154 0 2 0
0.1369572 1.4645314 -0.73881 0 3 0
0.14385682 1.5383116 -0.73150998 0 4 0
0.15506721 1.6581881 -0.74157184 0 5 0
0.16428386 1.756745 -0.73693573 0 6 0
0.17572275 1.8790652 -0.73714691 0 7 0
0.18832788 2.0138562 -0.73624527 0 8 0
0.1879483 2.0097973 -0.68199217 0 9 0
0.18882769 2.0192008 -0.63299453 0 10 0
0.18777862 2.007983 -0.57832789 0 11 0
0.18814746 2.0119269 -0.52889317 0 12 0
0.18764512 2.0065553 -0.4776563 0 13 0
0.18764725 2.006578 -0.4283832 0 14 0
0.18848731 2.0155611 -0.38128927 0 15 0
0.18868111 2.0176334 -0.33304757 0 16 0
0.18846411 2.0153129 -0.28445706 0 17 0
0.18853542 2.0160756 -0.23665346 0 18 0
0.18917301 2.0228934 -0.1896414 0 19 0
0.1873963 2.0038946 -0.14070235 0 20 0
0.18839231 2.0145452 -0.094195656 0 21 0
0.18849149 2.0156057 -0.047068205 0 22 0
0.18686487 1.9982117 5.7294619e-05 0 23 0
0.18825747 2.0131032 0.047125272 0 24 0
0.1880935 2.0113499 0.094161838 0 25 0
0.1882426 2.0129445 0.14145377 0 26 0
0.18801105 2.0104682 0.18859287 0 27 0
0.18827774 2.01332 0.23644705 0 28 0
0.081697769 1.2638034 -0.75106037 0 0 0
0.085346989 1.3202541 -0.74354476 0 1 0
0.089589134 1.3858768 -0.73851126 0 2 0
0.094160452 1.4565917 -0.73313963 0 3 0
0.10169061 1.5730776 -0.74634719 0 4 0
0.10711583 1.6570017 -0.73936212 0 5 0
0.11424908 1.7673478 -0.7397036 0 6 0
0.12270208 1.8981094 -0.74293065 0 7 0
0.13096823 2.0259805 -0.73899937 0 8 0
0.12909919 1.9970679 -0.67613715 0 9 0
0.13081363 2.0235889 -0.63293266 0 10 0
0.12918212 1.9983506 -0.57424951 0 11 0
0.13054085 2.0193694 -0.52964675 0 12 0
0.13022038 2.0144119 -0.47843999 0 13 0
0.12968928 2.006196 -0.42733112 0 14 0
0.13010417 2.0126143 -0.37986907 0 15 0
0.13025391 2.0149305 -0.33184779 0 16 0
0.13020076 2.0141084 -0.28364286 0 17 0
0.13019681 2.0140471 -0.23587966 0 18 0
0.13058811 2.0201006 -0.18895043 0 19 0
0.13076311 2.0228076 -0.14170848 0 20 0
0.1306843 2.0215883 -0.09431079 0 21 0
0.13037938 2.0168715 -0.046991039 0 22 0
0.13042046 2.0175071 5.7716792e-05 0 23 0
0.13055952 2.0196579 0.047171582 0 24 0
0.12995233 2.0102654 0.093897812 0 25 0
0.13013056 2.0130222 0.14113872 0 26 0
0.1300385 2.0115983 0.18827128 0 27 0
0.12963155 2.0053031 0.2349719 0 28 0
0.044767383 1.2477109 -0.74042851 0 0 0
0.0473147 1.3187071 -0.74160355 0 1 0
0.049673401 1.3844465 -0.73668617 0 2 0
0.052919835 1.4749278 -0.74129903 0 3 0
0.056235515 1.5673391 -0.74255311 0 4 0
0.059414309 1.6559352 -0.73782158 0 5 0
0.063556768 1.7713895 -0.740327 0 6 0
0.068102472 1.8980829 -0.74184984 0 7 0
0.072198436 2.0122414 -0.73293042 0 8 0
0.072201602 2.0123296 -0.68032253 0 9 0
0.07202065 2.0072863 -0.62692904 0 10 0
0.072527237 2.0214055 -0.58003765 0 11 0
0.072104752 2.0096304 -0.52633297 0 12 0
0.072093412 2.0093143 -0.47654164 0 13 0
0.072344385 2.016309 -0.42886645 0 14 0
0.071621805 1.9961702 -0.37622252 0 15 0
0.072397456 2.0177882 -0.33183959 0 16 0
0.072541386 2.0217998 -0.28431576 0 17 0
0.072628841 2.0242372 -0.23673151 0 18 0
0.072568588 2.0225577 -0.18890771 0 19 0
0.072197571 2.012217 -0.14076346 0 20 0
0.071857035 2.0027263 -0.093296222 0 21 0
0.072378688 2.0172651 -0.046932496 0 22 0
0.072274879 2.0143719 5.7544068e-05 0 23 0
0.072612502 2.0237818 0.047199797 0 24 0
0.072240286 2.0134077 0.0939091 0 25 0
0.07186538 2.0029588 0.14023079 0 26 0
0.072524197 2.0213206 0.18890867 0 27 0
0.071683533 1.9978905 0.23376602 0 28 0
0.0090121105 1.2562132 -0.74501377 0 0 0
0.0094255479 1.3138429 -0.7384119 0 1 0
0.0099453051 1.3862927 -0.73721313 0 2 0
0.010607464 1.4785922 -0.74268198 0 3 0
0.011249505 1.5680873 -0.74244899 0 4 0
0.011948372 1.6655036 -0.7416268 0 5 0
0.012683958 1.7680382 -0.73847014 0 6 0
0.013656859 1.9036524 -0.74356735 0 7 0
0.014592645 2.0340931 -0.7404322 0 8 0
0.014453842 2.0147452 -0.68071878 0 9 0
0.014494997 2.0204818 -0.63066077 0 10 0
0.014528856 2.0252013 -0.58076817 0 11 0
0.014411834 2.0088897 -0.52581418 0 12 0
0.014476896 2.0179589 -0.4782964 0 13 0
0.014476663 2.0179262 -0.42894548 0 14 0
0.014508096 2.0223076 -0.38091344 0 15 0
0.014439494 2.0127454 -0.33080593 0 16 0
0.014460896 2.0157285 -0.28328702 0 17 0
0.014468192 2.0167456 -0.23570977 0 18 0
0.014379956 2.004446 -0.1871005 0 19 0
0.014454276 2.0148056 -0.14085753 0 20 0
0.01440361 2.0077431 -0.093472198 0 21 0
0.014462661 2.0159745 -0.046873514 0 22 0
0.014430057 2.0114298 5.7424553e-05 0 23 0
0.014463563 2.0161002 0.046991613 0 24 0
0.014504136 2.0217557 0.094240248 0 25 0
0.014393702 2.0063622 0.14038236 0 26 0
0.014312609 1.9950585 0.18633914 0 27 0
0.014453663 2.0147202 0.23558968 0 28 0
-0.0267551 1.2432821 -0.73749661 0 0 0
-0.028294235 1.3148042 -0.73910421 0 1 0
-0.029908421 1.3898137 -0.73923767 0 2 0
-0.031879634 1.481414 -0.7442525 0 3 0
-0.033499967 1.5567092 -0.73721337 0 4 0
-0.036078013 1.6765083 -0.74668068 0 5 0
-0.038390554 1.7839698 -0.74527782 0 6 0
-0.04073919 1.8931085 -0.73960102 0 7 0
-0.04346557 2.0198004 -0.73538083 0 8 0
-0.043152377 2.0052469 -0.67764896 0 9 0
-0.043420363 2.0176997 -0.62992197 0 10 0
-0.043457966 2.0194471 -0.57923716 0 11 0
-0.043256596 2.0100896 -0.52623653 0 12 0
-0.043328669 2.0134389 -0.47732329 0 13 0
-0.043030817 1.999598 -0.42513695 0 14 0
-0.043395106 2.0165262 -0.3799026 0 15 0
-0.043393902 2.0164702 -0.33148631 0 16 0
-0.043087889 2.0022502 -0.28145069 0 17 0
-0.043312386 2.0126822 -0.23528327 0 18 0
-0.043497317 2.0212758 -0.18871026 0 19 0
-0.043093879 2.0025284 -0.14002803 0 20 0
-0.043312743 2.0126989 -0.093722194 0 21 0
-0.043227114 2.0087197 -0.046714444 0 22 0
-0.043204997 2.0076919 5.7329638e-05 0 23 0
-0.043335136 2.0137393 0.046946246 0 24 0
-0.043297864 2.0120075 0.093805157 0 25 0
-0.043197457 2.0073414 0.14047979 0 26 0
-0.043439776 2.0186019 0.18857689 0 27 0
-0.04382281 2.0364013 0.23817392 0 28 0
-0.062789083 1.2495599 -0.74198383 0 0 0
-0.065877996 1.3110321 -0.73774278 0 1 0
-0.069760956 1.3883064 -0.73919642 0 2 0
-0.074515723 1.4829307 -0.74578178 0 3 0
-0.078467391 1.5615724 -0.74027812 0 4 0
-0.083410241 1.6599396 -0.74006277 0 5 0
-0.089428373 1.7797059 -0.74426222 0 6 0
-0.09508907 1.892359 -0.74006969 0 7 0
-0.10067867 2.003597 -0.73023272 0 8 0
-0.10153211 2.0205812 -0.68353432 0 9 0
-0.10128807 2.0157247 -0.6299535 0 10 0
-0.10141525 2.0182557 -0.57949167 0 11 0
-0.10135394 2.0170355 -0.52859879 0 12 0
-0.10128039 2.0155718 -0.47832111 0 13 0
-0.10120765 2.0141244 -0.42866644 0 14 0
-0.10106073 2.0112004 -0.37928951 0 15 0
-0.10140449 2.0180416 -0.33208632 0 16 0
-0.10113822 2.0127425 -0.28321698 0 17 0
-0.10181047 2.0261209 -0.23709822 0 18 0
-0.10124746 2.0149164 -0.18831028 0 19 0
-0.10156395 2.021215 -0.14148025 0 20 0
-0.10118428 2.013659 -0.09386348 0 21 0
-0.10122701 2.0145094 -0.046897341 0 22 0
-0.10113189 2.0126164 5.7529447e-05 0 23 0
-0.10114481 2.0128736 0.046974391 0 24 0
-0.1017416 2.0247502 0.094496481 0 25 0
-0.10170457 2.0240133 0.14179242 0 26 0
-0.10127313 2.0154276 0.18847427 0 27 0
-0.102015 2.0301912 0.23769218 0 28 0
-0.097805634 1.2370882 -0.73594195 0 0 0
-0.10375843 1.3123817 -0.73987329 0 1 0
-0.10951696 1.3852181 -0.73892134 0 2 0
-0.11560419 1.4622121 -0.73672736 0 3 0
-0.123469 1.5616896 -0.74170804 0 4 0
-0.13127802 1.6604617 -0.74166977 0 5 0
-0.13945952 1.7639446 -0.73904037 0 6 0
-0.14891291 1.8835151 -0.73797846 0 7 0
-0.15945169 2.0168142 -0.73641443 0 8 0
-0.16011636 2.0252213 -0.6863758 0 9 0
-0.15991797 2.022712 -0.63331068 0 10 0
-0.15939634 2.016114 -0.57995141 0 11 0
-0.15972976 2.0203316 -0.53044546 0 12 0
-0.15880196 2.0085962 -0.47755057 0 13 0
-0.15982896 2.0215862 -0.43105331 0 14 0
-0.15916626 2.0132041 -0.3803722 0 15 0
-0.15880343 2.0086148 -0.33114868 0 16 0
-0.15974523 2.0205271 -0.2848402 0 17 0
-0.16032697 2.0278854 -0.23774523 0 18 0
-0.15959008 2.0185649 -0.18900147 0 19 0
-0.1594483 2.0167716 -0.1414313 0 20 0
-0.16011199 2.025166 -0.094575107 0 21 0
-0.15872738 2.007653 -0.046824485 0 22 0
-0.15992221 2.0227656 5.7926893e-05 0 23 0
-0.15902862 2.0114632 0.04702862 0 24 0
-0.15874691 2.0079 0.093884036 0 25 0
-0.15926842 2.0144963 0.1413877 0 26 0
-0.15867132 2.0069439 0.18802933 0 27 0
-0.15949494 2.0173612 0.23662853 0 28 0
-0.13456632 1.2459335 -0.74319541 0 0 0
-0.1414161 1.3093549 -0.74015009 0 1 0
-0.1502555 1.3911978 -0.74410498 0 2 0
-0.15857792 1.468254 -0.74175906 0 3 0
-0.16855045 1.5605885 -0.74317646 0 4 0
-0.17908968 1.65817 -0.74263608 0 5 0
-0.19144286 1.7725466 -0.74463969 0 6 0
-0.20366164 1.8856789 -0.74081123 0 7 0
-0.21719106 2.010946 -0.7362445 0 8 0
-0.21655679 2.0050735 -0.68137324 0 9 0
-0.21803653 2.0187743 -0.63377601 0 10 0
-0.21781902 2.0167603 -0.58169597 0 11 0
-0.21684872 2.0077765 -0.52856541 0 12 0
-0.216942 2.0086401 -0.47884408 0 13 0
-0.21768428 2.0155129 -0.43091294 0 14 0
-0.21769308 2.0155942 -0.38184699 0 15 0
-0.21904969 2.0281551 -0.33526853 0 16 0
-0.21911477 2.0287576 -0.28676885 0 17 0
-0.21967523 2.0339468 -0.23909652 0 18 0
-0.21767898 2.0154638 -0.18921812 0 19 0
-0.21903984 2.0280638 -0.14260532 0 20 0
-0.21750538 2.0138564 -0.094299622 0 21 0
-0.22029872 2.0397196 -0.047700193 0 22 0
-0.21851781 2.0232306 5.8095873e-05 0 23 0
-0.21692313 2.0084655 0.047084697 0 24 0
-0.21897289 2.0274439 0.095052548 0 25 0
-0.21729697 2.0119269 0.14158674 0 26 0
-0.21733226 2.0122535 0.1890333 0 27 0
-0.21763006 2.0150108 0.23698784 0 28 0
-0.16991071 1.2390697 -0.7417044 0 0 0
-0.17823045 1.2997413 -0.7373035 0 1 0
-0.18885341 1.3772091 -0.73921734 0 2 0
-0.19977802 1.4568764 -0.73860347 0 3 0
-0.21148577 1.5422549 -0.73703259 0 4 0
-0.2251064 1.6415831 -0.7377969 0 5 0
-0.24121636 1.7590644 -0.7415787 0 6 0
-0.25728935 1.8762764 -0.73971355 0 7 0
-0.27544975 2.0087106 -0.73801637 0 8 0
-0.29713544 2.166853 -0.7389434 0 9 0
-0.32338229 2.3582575 -0.74296135 0 10 0
-0.35140741 2.5626302 -0.74174505 0 11 0
-0.38665265 2.8196552 -0.74491429 0 12 0
-0.42593652 3.1061318 -0.74308556 0 13 0
-0.47467759 3.461575 -0.74268508 0 14 0
-0.53323245 3.8885851 -0.73927289 0 15 0
-0.61217993 4.4643073 -0.74058121 0 16 0
-0.71546853 5.2175369 -0.7401067 0 17 0
-0.86196232 6.2858391 -0.74152178 0 18 0
-1.0790286 7.8687906 -0.74134898 0 19 0
-1.4404556 10.504488 -0.74123508 0 20 0
-2.1607463 15.757191 -0.74043548 0 21 0
-4.3295684 31.573273 -0.74096251 0 22 0
-0.2077378 1.247817 -0.75020027 0 0 0
-0.21627223 1.2990807 -0.74014491 0 1 0
-0.22963978 1.3793755 -0.74361134 0 2 0
-0.24270633 1.4578621 -0.74232882 0 3 0
-0.25746858 1.5465344 -0.74230313 0 4 0
-0.27367437 1.6438776 -0.74205256 0 5 0
-0.29100519 1.7479784 -0.74012107 0 6 0
-0.31354317 1.8833572 -0.7457456 0 7 0
-0.33507714 2.0127051 -0.74271119 0 8 0
-0.35920563 2.1576376 -0.73901194 0 9 0
-0.39007747 2.3430753 -0.74139977 0 10 0
-0.4256722 2.5568819 -0.74331105 0 11 0
-0.46518534 2.794225 -0.74141765 0 12 0
-0.51380795 3.0862861 -0.7415601 0 13 0
-0.57142091 3.4323492 -0.73962849 0 14 0
-0.64569312 3.8784797 -0.74056971 0 15 0
-0.73922127 4.4402742 -0.73980904 0 16 0
-0.86500812 5.1958375 -0.7402451 0 17 0
-1.0413114 6.254837 -0.74108469 0 18 0
-1.3012992 7.8165035 -0.73963672 0 19 0
-1.742258 10.465207 -0.74168605 0 20 0
-2.6143446 15.703563 -0.7411359 0 21 0
-5.232698 31.431206 -0.74084759 0 22 0
-0.24112661 1.2295091 -0.74304777 0 0 0
-0.25324962 1.2913246 -0.73956221 0 1 0
-0.26677728 1.3603022 -0.73715293 0 2 0
-0.28618968 1.4592866 -0.74692863 0 3 0
-0.30147329 1.537218 -0.74167877 0 4 0
-0.31745705 1.6187195 -0.73450619 0 5 0
-0.34105316 1.7390364 -0.74017435 0 6 0
-0.36497897 1.8610345 -0.74074906 0 7 0
-0.39290342 2.003422 -0.74314052 0 8 0
-0.42126751 2.1480508 -0.73956466 0 9 0
-0.45956889 2.3433504 -0.74535322 0 10 0
-0.49679142 2.5331488 -0.74025154 0 11 0
-0.5461641 2.7849009 -0.74279672 0 12 0
-0.60162574 3.0677009 -0.74093801 0 13 0
-0.67099023 3.4213917 -0.74111164 0 14 0
-0.75842667 3.8672318 -0.74227238 0 15 0
-0.86803776 4.4261408 -0.74129951 0 16 0
-1.0134629 5.1676664 -0.74007058 0 17 0
-1.218938 6.2153873 -0.74025053 0 18 0
-1.5288382 7.7955742 -0.74150264 0 19 0
-2.0372982 10.388222 -0.74006891 0 20 0
-3.0634873 15.620779 -0.74107307 0 21 0
-6.1345477 31.280174 -0.7411322 0 22 0
-0.27431127 1.2133006 -0.73770607 0 0 0
-0.29189056 1.2910551 -0.74389911 0 1 0
-0.30974048 1.3700068 -0.7469213 0 2 0
-0.32977706 1.4586302 -0.75112754 0 3 0
-0.34312087 1.517651 -0.73668575 0 4 0
-0.36474159 1.6132811 -0.73648494 0 5 0
-0.39199182 1.7338111 -0.74243271 0 6 0
-0.41963288 1.8560696 -0.7432602 0 7 0
-0.4477447 1.9804105 -0.73906678 0 8 0
-0.48462123 2.1435182 -0.74248683 0 9 0
-0.52281213 2.3124397 -0.73998898 0 10 0
-0.57230246 2.5313394 -0.74421591 0 11 0
-0.62230134 2.7524884 -0.73861086 0 12 0
-0.6902532 3.0530448 -0.74187714 0 13 0
-0.76641589 3.3899186 -0.73875433 0 14 0
-0.87133902 3.854002 -0.74422622 0 15 0
-0.99435246 4.3980999 -0.74107736 0 16 0
-1.1626862 5.1426539 -0.74096197 0 17 0
-1.3992968 6.1892009 -0.74160916 0 18 0
-1.7508528 7.7441616 -0.7410866 0 19 0
-2.3383327 10.342631 -0.74129653 0 20 0
-3.5072701 15.512936 -0.74042702 0 21 0
-7.0268593 31.080359 -0.74087083 0 22 0
-0.30944064 1.2066365 -0.7387495 0 0 0
-0.32830399 1.2801925 -0.74276304 0 1 0
-0.34567532 1.3479304 -0.73998916 0 2 0
-0.36833471 1.4362887 -0.74475944 0 3 0
-0.39158785 1.5269624 -0.74635333 0 4 0
-0.41124243 1.6036036 -0.73715132 0 5 0
-0.43963581 1.7143211 -0.73918521 0 6 0
-0.47169754 1.8393431 -0.74167758 0 7 0
-0.50628996 1.974233 -0.74187827 0 8 0
-0.54286325 2.1168475 -0.73834085 0 9 0
-0.5893724 2.2982059 -0.7405417 0 10 0
-0.64082545 2.4988425 -0.73976403 0 11 0
-0.70228916 2.7385147 -0.73996472 0 12 0
-0.77665359 3.0284922 -0.74102193 0 13 0
-0.8645305 3.3711605 -0.7397688 0 14 0
-0.97783571 3.8129842 -0.7414192 0 15 0
-1.1225646 4.3773417 -0.74270213 0 16 0
-1.3108211 5.1114311 -0.74157816 0 17 0
-1.5771719 6.150043 -0.74203503 0 18 0
-1.9702061 7.6826453 -0.74030578 0 19 0
-2.6330328 10.26728 -0.74100661 0 20 0
-3.9576833 15.432637 -0.74171013 0 21 0
-7.9159594 30.867586 -0.74090904 0 22 0
-0.34188238 1.1901444 -0.73435694 0 0 0
-0.36369926 1.2660923 -0.74033314 0 1 0
-0.38242567 1.3312818 -0.73657119 0 2 0
-0.41229865 1.4352741 -0.7500599 0 3 0
-0.43032724 1.4980344 -0.73794627 0 4 0
-0.46176586 1.6074769 -0.74471688 0 5 0
-0.49057227 1.7077564 -0.74211955 0 6 0
-0.52381086 1.823465 -0.74103153 0 7 0
-0.55883229 1.94538 -0.73675907 0 8 0
-0.60310745 2.0995085 -0.73802626 0 9 0
-0.65403718 2.2768028 -0.73938876 0 10 0
-0.71443099 2.4870427 -0.74203503 0 11 0
-0.78024936 2.7161665 -0.73967195 0 12 0
-0.86437345 3.0090151 -0.74202031 0 13 0
-0.96385485 3.355325 -0.74205822 0 14 0
-1.0853759 3.778358 -0.7404381 0 15 0
-1.244759 4.3331947 -0.74096763 0 16 0
-1.4560069 5.0685806 -0.74111843 0 17 0
-1.7529505 6.1022868 -0.74203724 0 18 0
-2.1909013 7.6268597 -0.74068391 0 19 0
-2.9272294 10.190129 -0.74119627 0 20 0
-4.3911428 15.286234 -0.74042547 0 21 0
-8.8008137 30.636969 -0.74113077 0 22 0
-0.377689 1.1855173 -0.73788613 0 0 0
-0.40215907 1.2623256 -0.74457276 0 1 0
-0.42647994 1.3386657 -0.74712062 0 2 0
-0.44586527 1.3995138 -0.737755 0 3 0
-0.47995955 1.5065314 -0.74860895 0 4 0
-0.5011096 1.5729187 -0.73506641 0 5 0
-0.53701103 1.6856086 -0.73888791 0 6 0
-0.57497048 1.8047584 -0.73983043 0 7 0
-0.61806804 1.9400362 -0.7411477 0 8 0
-0.6679346 2.096561 -0.74342221 0 9 0
-0.72362727 2.271373 -0.74406314 0 10 0
-0.78938603 2.4777815 -0.74572384 0 11 0
-0.85841078 2.6944411 -0.74015957 0 12 0
-0.95124573 2.9858382 -0.74273103 0 13 0
-1.0552508 3.3122966 -0.73893547 0 14 0
-1.1989392 3.7633162 -0.74392682 0 15 0
-1.3672343 4.291573 -0.74025512 0 16 0
-1.6012151 5.0260086 -0.74130744 0 17 0
-1.9259565 6.04533 -0.74152702 0 18 0
-2.4073782 7.5564508 -0.74025083 0 19 0
-3.2150471 10.091619 -0.74043727 0 20 0
-4.8307152 15.162994 -0.74086612 0 21 0
-9.6673317 30.344513 -0.74046254 0 22 0
-0.41247198 1.1768489 -0.73955393 0 0 0
-0.43721709 1.2474507 -0.74289393 0 1 0
-0.46376717 1.3232024 -0.74561143 0 2 0
-0.47978637 1.3689077 -0.72857928 0 3 0
-0.51726067 1.4758278 -0.74042356 0 4 0
-0.55276519 1.5771279 -0.74414051 0 5 0
-0.58520561 1.6696856 -0.73896557 0 6 0
-0.62895632 1.7945136 -0.74272418 0 7 0
-0.67095 1.9143282 -0.73837852 0 8 0
-0.72453523 2.0672154 -0.74008483 0 9 0
-0.7887938 2.2505555 -0.7443527 0 10 0
-0.85777318 2.4473648 -0.74367207 0 11 0
-0.93370318 2.6640053 -0.73885542 0 12 0
-0.99805135 2.8476009 -0.71517467 0 13 0
-1.0015376 2.8575478 -0.64363325 0 14 0
-1.0035436 2.8632712 -0.57146513 0 15 0
-1.003837 2.8641083 -0.49879497 0 16 0
-0.99576253 2.8410707 -0.42308229 0 17 0
-0.99990982 2.8529036 -0.35331476 0 18 0
-1.0001081 2.8534694 -0.28222921 0 19 0
-1.0008519 2.8555915 -0.21153936 0 20 0
-0.99949884 2.8517308 -0.14067957 0 21 0
-0.99708718 2.8448501 -0.070089027 0 22 0
-1.0031325 2.862098 8.6581567e-05 0 23 0
-1.0011485 2.8564377 0.070547424 0 24 0
-1.0015944 2.8577099 0.14114779 0 25 0
-0.99918866 2.8508458 0.21136114 0 26 0
-0.44212812 1.1542627 -0.73303211 0 0 0
-0.47367531 1.2366228 -0.74423468 0 1 0
-0.49565744 1.2940115 -0.7368747 0 2 0
-0.52813578 1.3788025 -0.74160725 0 3 0
-0.56017423 1.4624453 -0.74146962 0 4 0
-0.60038 1.5674103 -0.74737734 0 5 0
-0.63787067 1.6652871 -0.74481398 0 6 0
-0.67661101 1.7664264 -0.73883182 0 7 0
-0.72909373 1.903443 -0.74194497 0 8 0
-0.78356236 2.045644 -0.74010783 0 9 0
-0.85105181 2.2218385 -0.74262697 0 10 0
-0.92641866 2.4185987 -0.74270397 0 11 0
-1.0006967 2.6125159 -0.73223841 0 12 0
-1.0027684 2.6179245 -0.6644454 0 13 0
-1.00442 2.6222365 -0.59687859 0 14 0
-0.99836314 2.6064239 -0.52570426 0 15 0
-1.0034779 2.6197772 -0.46106926 0 16 0
-0.99569583 2.5994604 -0.39119673 0 17 0
-1.0022542 2.6165824 -0.3274751 0 18 0
-0.99798012 2.6054239 -0.26042122 0 19 0
-1.0015285 2.6146877 -0.19574204 0 20 0
-1.003046 2.6186495 -0.13054763 0 21 0
-1.0012143 2.6138673 -0.065079376 0 22 0
-0.99600631 2.600271 7.9492973e-05 0 23 0
-1.0050366 2.6238463 0.065488346 0 24 0
-1.0001922 2.6111989 0.1303362 0 25 0
-0.99864417 2.6071577 0.19533852 0 26 0
-0.4806779 1.1546043 -0.74170417 0 0 0
-0.50965512 1.2242085 -0.74525899 0 1 0
-0.53745246 1.2909786 -0.74362457 0 2 0
-0.56729478 1.3626609 -0.74137658 0 3 0
-0.59709901 1.4342515 -0.7355603 0 4 0
-0.63774961 1.5318956 -0.73886585 0 5 0
-0.68122482 1.6363246 -0.74029934 0 6 0
-0.72916633 1.7514817 -0.74102831 0 7 0
-0.78265923 1.8799734 -0.74124664 0 8 0
-0.83989525 2.0174563 -0.73832619 0 9 0
-0.9076333 2.1801653 -0.73710078 0 10 0
-0.98887724 2.3753159 -0.73782361 0 11 0
-0.99916589 2.4000297 -0.68043929 0 12 0
-1.0021402 2.4071739 -0.61800057 0 13 0
-0.99856794 2.3985934 -0.55226815 0 14 0
-1.0027986 2.4087555 -0.49143755 0 15 0
-1.0041039 2.411891 -0.42937693 0 16 0
-1.0041457 2.4119916 -0.36716983 0 17 0
-1.0011857 2.404881 -0.30445048 0 18 0
-1.0001768 2.402458 -0.24290302 0 19 0
-1.0019099 2.4066207 -0.18224312 0 20 0
-0.99745435 2.3959184 -0.12082113 0 21 0
