# .PCD v0.7 - Point Cloud Data file format
VERSION 0.7
FIELDS x y z intensity ring time
SIZE 4 4 4 4 2 4
TYPE F F F F U F
COUNT 1 1 1 1 1 1
WIDTH 1232
HEIGHT 1
VIEWPOINT 0 0 0 1 0 0 0
POINTS 1232
DATA ascii
1.1538512 -2.2387497 -0.48956653 0 2 0
1.4025071 -2.7212024 -0.48487219 0 3 0
1.8186647 -3.5286486 -0.48742309 0 4 0
2.5513093 -4.9501562 -0.48721945 0 5 0
4.2657089 -8.2765055 -0.48797399 0 6 0
12.799533 -24.834185 -0.48766914 0 7 0
0.86059004 -1.6126486 -0.48978594 0 0 0
0.99554622 -1.8655415 -0.48818353 0 1 0
1.1880573 -2.2262852 -0.49050927 0 2 0
1.4583913 -2.7328608 -0.49061877 0 3 0
1.8734782 -3.5106869 -0.48859608 0 4 0
2.6259894 -4.9208078 -0.48798037 0 5 0
4.3844914 -8.2160425 -0.48805928 0 6 0
13.155114 -24.651201 -0.4877235 0 7 0
0.8792696 -1.5923568 -0.48739544 0 0 0
1.0184299 -1.8443761 -0.48640969 0 1 0
1.2141526 -2.1988297 -0.48823905 0 2 0
1.4823022 -2.6844485 -0.48568675 0 3 0
1.9213303 -3.4795282 -0.48803705 0 4 0
2.693681 -4.8782549 -0.48753402 0 5 0
4.495698 -8.1417065 -0.48741612 0 6 0
13.501698 -24.451571 -0.48754743 0 7 0
0.905352 -1.5855336 -0.48922333 0 0 0
1.0474043 -1.8343084 -0.48765841 0 1 0
1.2455115 -2.1812515 -0.48824441 0 2 0
1.52538 -2.6713822 -0.48722306 0 3 0
1.9665344 -3.4439714 -0.48694798 0 4 0
2.760412 -4.834281 -0.48703811 0 5 0
4.6180801 -8.0875959 -0.4880839 0 6 0
13.849004 -24.253618 -0.48750299 0 7 0
0.92769957 -1.5719872 -0.48909056 0 0 0
1.0735145 -1.8190705 -0.48764244 0 1 0
1.2767086 -2.1633828 -0.48828515 0 2 0
1.5666372 -2.6546669 -0.48821422 0 3 0
2.0245948 -3.4306762 -0.48911542 0 4 0
2.8337109 -4.8017235 -0.48779443 0 5 0
4.7305641 -8.0159416 -0.48779598 0 6 0
14.20272 -24.066509 -0.48777828 0 7 0
0.94789779 -1.5549318 -0.48795548 0 0 0
1.1013384 -1.8066356 -0.48848483 0 1 0
1.2952964 -2.1248045 -0.48371288 0 2 0
1.5978287 -2.6210785 -0.4861933 0 3 0
2.0733886 -3.4011869 -0.48909217 0 4 0
2.9013884 -4.759438 -0.48766759 0 5 0
4.836875 -7.9344101 -0.48699763 0 6 0
14.54046 -23.852171 -0.48760241 0 7 0
0.97378772 -1.5471368 -0.48983315 0 0 0
1.1243336 -1.7863214 -0.4872936 0 1 0
1.3439703 -2.1352763 -0.49042585 0 2 0
1.6420439 -2.6088505 -0.48823482 0 3 0
2.1184554 -3.3657646 -0.48830876 0 4 0
2.9661148 -4.7125106 -0.48715949 0 5 0
4.9606552 -7.881402 -0.48805219 0 6 0
14.879517 -23.640314 -0.48757535 0 7 0
0.98923457 -1.5228871 -0.48658866 0 0 0
1.1529326 -1.7748939 -0.48862794 0 1 0
1.3677372 -2.105577 -0.488051 0 2 0
1.6800777 -2.5864127 -0.48848605 0 3 0
2.1638558 -3.3311698 -0.48773324 0 4 0
3.0384159 -4.6775203 -0.48798814 0 5 0
5.0734944 -7.8104424 -0.48810494 0 6 0
15.224452 -23.437437 -0.48783553 0 7 0
1.0053449 -1.5002406 -0.48390096 0 0 0
1.1781324 -1.7580854 -0.48859292 0 1 0
1.3983519 -2.0867112 -0.48826739 0 2 0
1.7166207 -2.5616522 -0.48840019 0 3 0
2.2127428 -3.3019979 -0.4880493 0 4 0
3.0991888 -4.6248097 -0.4870671 0 5 0
5.1829257 -7.7342968 -0.4879325 0 6 0
15.547521 -23.201015 -0.48749661 0 7 0
1.031701 -1.4929157 -0.48625171 0 0 0
1.19629 -1.7310833 -0.48579767 0 1 0
1.4266993 -2.0644953 -0.4877975 0 2 0
1.7464076 -2.527127 -0.48653376 0 3 0
2.2579923 -3.2674122 -0.48766443 0 4 0
3.1642928 -4.5788679 -0.48694882 0 5 0
5.2950907 -7.6622243 -0.48811707 0 6 0
15.883791 -22.984529 -0.48767498 0 7 0
1.0603095 -1.4883106 -0.48964474 0 0 0
1.2276645 -1.7232196 -0.48847213 0 1 0
1.4550442 -2.0423825 -0.48744369 0 2 0
1.7791108 -2.497261 -0.48563674 0 3 0
2.304774 -3.2351117 -0.48771727 0 4 0
3.2358465 -4.5420179 -0.48790553 0 5 0
5.4026546 -7.5834727 -0.48797661 0 6 0
16.2118 -22.755804 -0.48769552 0 7 0
1.0799339 -1.4708478 -0.48893496 0 0 0
1.2496614 -1.7020134 -0.48748133 0 1 0
1.4841421 -2.0213711 -0.48744908 0 2 0
1.8248219 -2.4853702 -0.48835376 0 3 0
2.3502424 -3.2009819 -0.4875935 0 4 0
3.2948663 -4.4875407 -0.48706967 0 5 0
5.5126066 -7.5080576 -0.48815113 0 6 0
16.545391 -22.534483 -0.48797774 0 7 0
1.1067786 -1.4630466 -0.49155742 0 0 0
1.2754519 -1.686015 -0.488078 0 1 0
1.5161949 -2.0042524 -0.48850426 0 2 0
1.8531854 -2.4497187 -0.48651072 0 3 0
2.3947628 -3.1656277 -0.48737955 0 4 0
3.3627396 -4.4451923 -0.48764756 0 5 0
5.6198969 -7.4289203 -0.48818582 0 6 0
16.856899 -22.283072 -0.48770839 0 7 0
1.1152343 -1.4311818 -0.48616487 0 0 0
1.3041873 -1.6736655 -0.48985678 0 1 0
1.5422854 -1.9792172 -0.48773292 0 2 0
1.8930054 -2.4292967 -0.48778608 0 3 0
2.4356766 -3.1257074 -0.48655108 0 4 0
3.4304235 -4.4022679 -0.48827511 0 5 0
5.7181444 -7.3381033 -0.48754638 0 6 0
17.174213 -22.039694 -0.48771194 0 7 0
1.1391374 -1.4194781 -0.48767796 0 0 0
1.3199799 -1.6448257 -0.48689574 0 1 0
1.5692003 -1.955379 -0.48734355 0 2 0
1.9359975 -2.4124448 -0.48991632 0 3 0
2.4838204 -3.0950863 -0.48726875 0 4 0
3.4850652 -4.3427367 -0.48715514 0 5 0
5.8202143 -7.252564 -0.48734817 0 6 0
17.484514 -21.787437 -0.48761788 0 7 0
1.1658669 -1.4109327 -0.49042505 0 0 0
1.3442762 -1.6268437 -0.48721859 0 1 0
1.5968339 -1.9324893 -0.48728529 0 2 0
1.9538531 -2.3645542 -0.48582035 0 3 0
2.5260868 -3.0570714 -0.48692638 0 4 0
3.5527959 -4.2995954 -0.4879702 0 5 0
5.9287033 -7.1749201 -0.48778313 0 6 0
17.802752 -21.544901 -0.4878428 0 7 0
1.1785079 -1.3853648 -0.48735136 0 0 0
1.3731072 -1.6141211 -0.48924431 0 1 0
1.6235371 -1.9085076 -0.48704797 0 2 0
1.9928255 -2.3426151 -0.48712346 0 3 0
2.564244 -3.0143316 -0.48591509 0 4 0
3.6016073 -4.2337775 -0.48630127 0 5 0
6.0178237 -7.0740991 -0.4867349 0 6 0
18.098595 -21.275339 -0.48755494 0 7 0
1.205299 -1.3764466 -0.49023286 0 0 0
1.3878713 -1.5849433 -0.48637185 0 1 0
1.6538789 -1.8887231 -0.48799026 0 2 0
2.0372517 -2.3265331 -0.48979276 0 3 0
2.6109295 -2.9816709 -0.48662463 0 4 0
3.6722543 -4.1936998 -0.48768535 0 5 0
6.1294498 -6.9998069 -0.4876098 0 6 0
18.409172 -21.023201 -0.48776531 0 7 0
1.2173034 -1.3506541 -0.48720238 0 0 0
1.4109633 -1.5655286 -0.48656169 0 1 0
1.6781988 -1.8620387 -0.48725215 0 2 0
2.0734947 -2.3006377 -0.49053901 0 3 0
2.6603074 -2.9517334 -0.48790321 0 4 0
3.7365692 -4.145895 -0.4882957 0 5 0
6.2352285 -6.9182725 -0.48809713 0 6 0
18.711882 -20.761694 -0.48786208 0 7 0
1.2386799 -1.3354338 -0.48805761 0 0 0
1.4360374 -1.5482072 -0.48751661 0 1 0
1.7087722 -1.8422453 -0.48842287 0 2 0
2.0985575 -2.2624769 -0.48875695 0 3 0
2.6958582 -2.9064331 -0.48674375 0 4 0
3.7866576 -4.0824356 -0.48715526 0 5 0
6.3250523 -6.8191056 -0.48743808 0 6 0
18.992931 -20.476479 -0.48749822 0 7 0
1.2611198 -1.3211877 -0.48939803 0 0 0
1.4568067 -1.5261952 -0.48710144 0 1 0
1.7364763 -1.8191857 -0.48884881 0 2 0
2.1220915 -2.2231679 -0.48677698 0 3 0
2.7410221 -2.8715787 -0.48742718 0 4 0
3.8438747 -4.0269608 -0.48705101 0 5 0
6.4329896 -6.7393966 -0.48827225 0 6 0
19.288715 -20.207447 -0.48761627 0 7 0
1.2669781 -1.2898487 -0.48445725 0 0 0
1.4886042 -1.5154753 -0.49043021 0 1 0
1.7598689 -1.7916367 -0.48816484 0 2 0
2.159122 -2.1980968 -0.48800427 0 3 0
2.7738976 -2.8239698 -0.48603562 0 4 0
3.9153185 -3.9859946 -0.48882428 0 5 0
6.5193086 -6.6369901 -0.48756352 0 6 0
19.574656 -19.928001 -0.48758408 0 7 0
1.2942017 -1.2803816 -0.48780921 0 0 0
1.5059992 -1.4899174 -0.48908508 0 1 0
1.7948962 -1.7757295 -0.49078038 0 2 0
2.193032 -2.1696138 -0.4885996 0 3 0
2.8209183 -2.7907951 -0.48722532 0 4 0
3.9653528 -3.9230089 -0.48801056 0 5 0
6.6123724 -6.5417624 -0.48747087 0 6 0
19.858625 -19.646566 -0.48760286 0 7 0
1.3108344 -1.2602285 -0.48722953 0 0 0
1.5314575 -1.4723343 -0.49045864 0 1 0
1.8216927 -1.7513647 -0.49120265 0 2 0
2.2188244 -2.1331649 -0.48749346 0 3 0
2.8695059 -2.7587264 -0.48874715 0 4 0
4.0089746 -3.8542044 -0.48653984 0 5 0
6.7046671 -6.4458275 -0.48742333 0 6 0
20.150669 -19.372734 -0.4879151 0 7 0
1.3274907 -1.2401749 -0.48677269 0 0 0
1.5527717 -1.4506381 -0.4905847 0 1 0
1.8404106 -1.7193575 -0.48956376 0 2 0
2.2613411 -2.112601 -0.4901408 0 3 0
2.901334 -2.7104986 -0.48751032 0 4 0
4.0698218 -3.8021293 -0.48726979 0 5 0
6.8142285 -6.3660221 -0.48871398 0 6 0
20.415955 -19.073093 -0.48767832 0 7 0
1.3556403 -1.2306132 -0.49058557 0 0 0
1.5622257 -1.4181459 -0.48710856 0 1 0
1.8524358 -1.6815908 -0.48631012 0 2 0
2.2771637 -2.0671473 -0.48710731 0 3 0
2.9456403 -2.6739721 -0.48847389 0 4 0
4.1326752 -3.7515299 -0.48831597 0 5 0
6.8872075 -6.2520194 -0.48748001 0 6 0
20.686169 -18.778339 -0.48766255 0 7 0
1.3661289 -1.2049245 -0.48808995 0 0 0
1.5846772 -1.397684 -0.48782119 0 1 0
1.8713354 -1.6505163 -0.48502001 0 2 0
2.2981682 -2.0269823 -0.48534444 0 3 0
2.9878845 -2.6353116 -0.48917395 0 4 0
4.180932 -3.6875787 -0.48773137 0 5 0
6.982378 -6.1584516 -0.48792702 0 6 0
20.956221 -18.48337 -0.48774207 0 7 0
1.3706204 -1.174441 -0.48363915 0 0 0
1.6041967 -1.374585 -0.48772332 0 1 0
1.9084918 -1.635326 -0.48853356 0 2 0
2.3394864 -2.0046315 -0.48796073 0 3 0
3.0193179 -2.5871572 -0.48820746 0 4 0
4.2327552 -3.6269131 -0.48767078 0 5 0
7.0736527 -6.0611877 -0.48819277 0 6 0
21.218782 -18.1817 -0.48774603 0 7 0
1.4094539 -1.1731536 -0.49136645 0 0 0
1.6192935 -1.3478128 -0.48639807 0 1 0
1.9229994 -1.6006012 -0.48633283 0 2 0
2.3670647 -1.9702173 -0.48778099 0 3 0
3.0599473 -2.5469356 -0.48883232 0 4 0
4.272788 -3.5564389 -0.48636839 0 5 0
7.1685929 -5.9667511 -0.48880076 0 6 0
21.479145 -17.878084 -0.48779872 0 7 0
1.4196752 -1.1476678 -0.48915288 0 0 0
1.6380098 -1.3241699 -0.48627704 0 1 0
1.9494652 -1.5759509 -0.4872714 0 2 0
2.3902397 -1.9322736 -0.48680735 0 3 0
3.0808334 -2.4905508 -0.48642418 0 4 0
4.3362479 -3.50543 -0.48783064 0 5 0
7.2313495 -5.8458347 -0.48732457 0 6 0
21.713564 -17.55328 -0.48736662 0 7 0
1.4267449 -1.1200017 -0.48601544 0 0 0
1.6613966 -1.3042045 -0.48762807 0 1 0
1.9760084 -1.5511762 -0.48830631 0 2 0
2.4073102 -1.8897502 -0.48472548 0 3 0
3.1286719 -2.4560227 -0.48837686 0 4 0
4.3853755 -3.4425411 -0.48776412 0 5 0
7.3037724 -5.7334971 -0.48662487 0 6 0
21.975451 -17.250835 -0.4876526 0 7 0
1.4416758 -1.0987415 -0.48569453 0 0 0
1.6834327 -1.2829913 -0.48865578 0 1 0
1.9920751 -1.5182163 -0.4868567 0 2 0
2.4532914 -1.8697221 -0.4885453 0 3 0
3.1572292 -2.4062128 -0.48740846 0 4 0
4.4330525 -3.3785536 -0.48763835 0 5 0
7.4113331 -5.6483846 -0.48835459 0 6 0
22.22579 -16.938898 -0.48777762 0 7 0
1.4640535 -1.0830262 -0.48796099 0 0 0
1.6879686 -1.2486662 -0.48473477 0 1 0
2.0152969 -1.4908057 -0.48726708 0 2 0
2.4701765 -1.8273005 -0.48664945 0 3 0
3.2026145 -2.3691177 -0.48912984 0 4 0
4.4737835 -3.3094587 -0.48685822 0 5 0
7.489923 -5.5406327 -0.48825744 0 6 0
22.459669 -16.614426 -0.48764139 0 7 0
1.4750595 -1.0588433 -0.4865281 0 0 0
1.7211276 -1.2354785 -0.48912865 0 1 0
2.0248408 -1.4534932 -0.48449478 0 2 0
2.5114169 -1.8027725 -0.48964044 0 3 0
3.2389479 -2.3250167 -0.48954618 0 4 0
4.5216498 -3.2457798 -0.48696154 0 5 0
7.573822 -5.4367232 -0.48860377 0 6 0
22.688423 -16.286449 -0.48749679 0 7 0
1.4903384 -1.0378158 -0.48661819 0 0 0
1.7223824 -1.1994026 -0.48455676 0 1 0
2.0616519 -1.435657 -0.48833582 0 2 0
2.5275948 -1.7601223 -0.48783275 0 3 0
3.2606869 -2.2706201 -0.48786971 0 4 0
4.5678301 -3.1808658 -0.48698181 0 5 0
7.6329865 -5.3153257 -0.48746255 0 6 0
22.933739 -15.970196 -0.48780623 0 7 0
1.5114808 -1.02073 -0.48870096 0 0 0
1.7576679 -1.1869847 -0.48965371 0 1 0
2.0691214 -1.3973148 -0.48531798 0 2 0
2.5515811 -1.7231284 -0.487652 0 3 0
3.2927945 -2.2236831 -0.48786145 0 4 0
4.6141343 -3.1160076 -0.48711348 0 5 0
7.7219973 -5.2148032 -0.48833016 0 6 0
23.166716 -15.644898 -0.4879486 0 7 0
1.5277129 -1.0001574 -0.48927048 0 0 0
1.7598312 -1.1521196 -0.48561257 0 1 0
2.1081283 -1.3801415 -0.48978347 0 2 0
2.5745244 -1.6854801 -0.48737624 0 3 0
3.3234186 -2.1757634 -0.48773471 0 4 0
4.6616502 -3.051872 -0.48746824 0 5 0
7.7896504 -5.0996995 -0.4879424 0 6 0
23.376356 -15.303946 -0.4877004 0 7 0
1.5413032 -0.97783029 -0.48909038 0 0 0
1.7854013 -1.1326905 -0.4881447 0 1 0
2.1251566 -1.3482374 -0.48920605 0 2 0
2.6140959 -1.6584293 -0.49032345 0 3 0
3.348999 -2.124665 -0.48697585 0 4 0
4.7014809 -2.9827037 -0.48711902 0 5 0
7.8582029 -4.9853845 -0.4877167 0 6 0
23.596626 -14.970121 -0.48777553 0 7 0
1.5538312 -0.95486677 -0.48867878 0 0 0
1.8051677 -1.1093191 -0.48915765 0 1 0
2.1358855 -1.3125532 -0.48730117 0 2 0
2.6318679 -1.6173463 -0.48926461 0 3 0
3.3882649 -2.0821705 -0.48830178 0 4 0
4.7529283 -2.920789 -0.48806792 0 5 0
7.909512 -4.8605857 -0.4865334 0 6 0
23.803255 -14.627674 -0.48766887 0 7 0
1.5662099 -0.93185925 -0.488327 0 0 0
1.8205339 -1.0831763 -0.48907018 0 1 0
2.1514995 -1.2800932 -0.48663333 0 2 0
2.6547799 -1.5795336 -0.4892709 0 3 0
3.4191315 -2.0343053 -0.48850375 0 4 0
4.7993703 -2.8555162 -0.48858982 0 5 0
7.9999084 -4.7597637 -0.48785317 0 6 0
23.996189 -14.277186 -0.48738495 0 7 0
1.5752492 -0.90696627 -0.48704788 0 0 0
1.8340925 -1.055998 -0.48860204 0 1 0
2.176573 -1.2531847 -0.48819739 0 2 0
2.6637154 -1.533662 -0.48682207 0 3 0
3.432467 -1.9762789 -0.48631772 0 4 0
4.8347325 -2.783648 -0.48808357 0 5 0
8.0608521 -4.64112 -0.48746863 0 6 0
24.209492 -13.938869 -0.48761505 0 7 0
1.5860958 -0.88322997 -0.48644289 0 0 0
1.852248 -1.0314389 -0.48945552 0 1 0
2.1927471 -1.2210486 -0.48785508 0 2 0
2.6915855 -1.4988307 -0.48794484 0 3 0
3.4717927 -1.9332952 -0.48791882 0 4 0
4.8739305 -2.7140865 -0.48806891 0 5 0
8.1418095 -4.5338306 -0.48838994 0 6 0
24.412102 -13.594071 -0.48772687 0 7 0
1.6021814 -0.86238098 -0.48754063 0 0 0
1.8611901 -1.0017935 -0.48797938 0 1 0
2.200815 -1.184598 -0.48582789 0 2 0
2.7025945 -1.4546829 -0.48611617 0 3 0
3.5004544 -1.8841344 -0.48810679 0 4 0
4.9025722 -2.6388302 -0.48710483 0 5 0
8.1881104 -4.4072852 -0.48733333 0 6 0
24.597387 -13.239648 -0.48759261 0 7 0
1.6117074 -0.83798319 -0.48673961 0 0 0
1.8694876 -0.97201222 -0.48645732 0 1 0
2.2213771 -1.1549718 -0.48666781 0 2 0
2.7368865 -1.4230033 -0.48857063 0 3 0
3.5256684 -1.8331187 -0.487914 0 4 0
4.9547505 -2.5761485 -0.48857543 0 5 0
8.2583332 -4.293797 -0.48780495 0 6 0
24.791597 -12.89002 -0.48773512 0 7 0
1.6234217 -0.8147735 -0.48670545 0 0 0
1.8806679 -0.94388187 -0.48580128 0 1 0
2.2443709 -1.1264195 -0.48812306 0 2 0
2.7486622 -1.3795165 -0.48709798 0 3 0
3.5444155 -1.7788944 -0.48693484 0 4 0
4.9998732 -2.5093689 -0.48943296 0 5 0
8.3211412 -4.1762686 -0.48793402 0 6 0
24.966291 -12.530245 -0.48759356 0 7 0
1.6334808 -0.79076064 -0.48627806 0 0 0
1.9049624 -0.92218363 -0.48861715 0 1 0
2.258935 -1.0935402 -0.48783642 0 2 0
2.7826807 -1.3470831 -0.48965943 0 3 0
3.5684063 -1.7274493 -0.48678398 0 4 0
5.0140157 -2.4272623 -0.48736653 0 5 0
8.3687725 -4.0512848 -0.48727682 0 6 0
25.151165 -12.175565 -0.48775059 0 7 0
1.6527101 -0.77107066 -0.48866692 0 0 0
1.9033689 -0.88801533 -0.48489857 0 1 0
2.277204 -1.0624278 -0.48844764 0 2 0
2.7893579 -1.3013729 -0.48750672 0 3 0
3.6072817 -1.6829746 -0.48875099 0 4 0
5.0472851 -2.3548071 -0.48727426 0 5 0
8.4458408 -3.9404004 -0.48843014 0 6 0
25.324574 -11.815161 -0.48778388 0 7 0
1.6613357 -0.74633151 -0.48800874 0 0 0
1.9189069 -0.86204171 -0.48566383 0 1 0
2.2817039 -1.0250231 -0.4862161 0 2 0
2.8141503 -1.264217 -0.48862711 0 3 0
3.6221142 -1.6271834 -0.48755506 0 4 0
5.0783138 -2.2813604 -0.4870674 0 5 0
8.5044909 -3.8205218 -0.48860943 0 6 0
25.497177 -11.454245 -0.48790058 0 7 0
1.6682154 -0.72090864 -0.48694864 0 0 0
1.9327214 -0.83521318 -0.4860847 0 1 0
2.297864 -0.99300724 -0.48658106 0 2 0
2.8259664 -1.2212234 -0.48759374 0 3 0
2.8404729 -1.2274923 -0.37993827 0 4 0
2.8398759 -1.2272342 -0.27066356 0 5 0
2.8382163 -1.2265171 -0.16203913 0 6 0
2.854037 -1.2333539 -0.054269984 0 7 0
2.8356075 -1.2253897 0.053919543 0 8 0
2.8429277 -1.2285531 0.1623081 0 9 0
2.8424716 -1.228356 0.27091095 0 10 0
2.8503983 -1.2317814 0.38126588 0 11 0
2.8410628 -1.2277471 0.49019849 0 12 0
1.6871102 -0.70059204 -0.48948675 0 0 0
1.9580756 -0.81311357 -0.48948413 0 1 0
2.3150933 -0.96136928 -0.48726568 0 2 0
2.838937 -1.1789014 -0.48687035 0 3 0
2.8456244 -1.1816785 -0.37832621 0 4 0
2.849793 -1.1834095 -0.26996666 0 5 0
2.8440082 -1.1810073 -0.16138816 0 6 0
2.8504937 -1.1837004 -0.053874917 0 7 0
2.8443804 -1.1811619 0.053759374 0 8 0
2.8397334 -1.1792321 0.16114558 0 9 0
2.8448529 -1.1813581 0.26949871 0 10 0
2.8379331 -1.1784846 0.37730363 0 11 0
2.8546653 -1.1854328 0.4895677 0 12 0
1.6922866 -0.67450994 -0.48813748 0 0 0
1.9499347 -0.77720308 -0.48461848 0 1 0
2.3264689 -0.92728174 -0.48681656 0 2 0
2.8552132 -1.138028 -0.48681825 0 3 0
2.8508935 -1.1363063 -0.37682575 0 4 0
2.8550963 -1.1379815 -0.26889849 0 5 0
2.8391507 -1.1316259 -0.16017695 0 6 0
2.8427062 -1.1330431 -0.053415742 0 7 0
2.8502579 -1.136053 0.053557642 0 8 0
2.8382711 -1.1312754 0.16012734 0 9 0
2.8452289 -1.1340486 0.26796916 0 10 0
2.8346786 -1.1298435 0.37468249 0 11 0
2.849637 -1.1358055 0.4858675 0 12 0
1.7062659 -0.65193987 -0.48942801 0 0 0
1.9716305 -0.7533319 -0.48728076 0 1 0
2.3453181 -0.89611268 -0.48802683 0 2 0
2.8479455 -1.0881593 -0.48287401 0 3 0
2.8352163 -1.0832957 -0.37266588 0 4 0
2.8380842 -1.0843916 -0.26580721 0 5 0
2.849695 -1.0888278 -0.1598762 0 6 0
2.8505239 -1.0891446 -0.053264253 0 7 0
2.8562922 -1.0913485 0.053372037 0 8 0
2.8378258 -1.0842928 0.15921031 0 9 0
2.8486331 -1.0884221 0.26679519 0 10 0
2.8578799 -1.0919552 0.3756448 0 11 0
2.8463569 -1.0875524 0.48260471 0 12 0
1.702764 -0.62282324 -0.48581663 0 0 0
1.9838293 -0.72562897 -0.4876788 0 1 0
2.3622782 -0.86405498 -0.48893237 0 2 0
2.8513541 -1.0429451 -0.48087162 0 3 0
2.8498912 -1.0424101 -0.37259543 0 4 0
2.8471656 -1.0414132 -0.2652345 0 5 0
2.8468421 -1.0412948 -0.15886368 0 6 0
2.8358629 -1.0372789 -0.052707471 0 7 0
2.8548305 -1.0442168 0.053060006 0 8 0
2.8518634 -1.0431315 0.15914389 0 9 0
2.8529747 -1.043538 0.26577565 0 10 0
2.842603 -1.0397443 0.37164256 0 11 0
2.8335297 -1.0364256 0.47786561 0 12 0
1.7098255 -0.59780282 -0.48534036 0 0 0
2.0010478 -0.69962227 -0.48939973 0 1 0
2.3725171 -0.82949835 -0.48854411 0 2 0
2.8373981 -0.99203372 -0.47607455 0 3 0
2.858717 -0.99948746 -0.37184086 0 4 0
2.8466156 -0.99525636 -0.26382914 0 5 0
2.8418965 -0.99360651 -0.15777791 0 6 0
2.8322642 -0.99023873 -0.052371785 0 7 0
2.8520989 -0.99717361 0.052738559 0 8 0
2.8413327 -0.99340934 0.1577466 0 9 0
2.8435218 -0.99417472 0.26354241 0 10 0
2.8412108 -0.99336678 0.36956379 0 11 0
2.8522556 -0.99722832 0.47856742 0 12 0
1.7265331 -0.57604879 -0.48769242 0 0 0
1.997894 -0.666587 -0.4862451 0 1 0
2.3807676 -0.79433078 -0.48785186 0 2 0
2.838403 -0.9470185 -0.47392026 0 3 0
2.8470819 -0.94991416 -0.36852115 0 4 0
2.8405046 -0.94771963 -0.26197869 0 5 0
2.842135 -0.94826359 -0.15702151 0 6 0
2.8516073 -0.95142406 -0.052472275 0 7 0
2.8432891 -0.94864869 0.052319214 0 8 0
2.8515465 -0.95140374 0.15754148 0 9 0
2.8487849 -0.95048237 0.2627424 0 10 0
2.8336847 -0.94544423 0.36678705 0 11 0
2.8547316 -0.95246643 0.4766466 0 12 0
1.7347255 -0.55131936 -0.48772752 0 0 0
2.0196812 -0.64188212 -0.48926142 0 1 0
2.3838141 -0.75760853 -0.48620421 0 2 0
2.8528237 -0.90666616 -0.47411263 0 3 0
2.8537548 -0.90696204 -0.36766687 0 4 0
2.8505976 -0.90595871 -0.26168677 0 5 0
2.8413587 -0.90302241 -0.15624852 0 6 0
2.8472857 -0.90490609 -0.052149076 0 7 0
2.8452723 -0.9042663 0.052112203 0 8 0
2.843951 -0.90384632 0.15639108 0 9 0
2.8448703 -0.90413851 0.26116103 0 10 0
2.8454535 -0.90432382 0.36659735 0 11 0
2.8418684 -0.90318441 0.47229198 0 12 0
1.7465174 -0.52766794 -0.48886931 0 0 0
2.0247185 -0.61171961 -0.48831064 0 1 0
2.4108822 -0.72838968 -0.48954847 0 2 0
2.8341839 -0.85627997 -0.46892995 0 3 0
2.8161922 -0.8508442 -0.3612214 0 4 0
2.8353868 -0.85664344 -0.25913826 0 5 0
2.8383355 -0.85753429 -0.15539138 0 6 0
2.8408701 -0.85830009 -0.051801257 0 7 0
2.853574 -0.86213827 0.052032903 0 8 0
2.8181319 -0.85143024 0.15428528 0 9 0
2.861275 -0.86446494 0.26150429 0 10 0
2.8500385 -0.8610701 0.36556274 0 11 0
2.8517537 -0.86158824 0.47183695 0 12 0
1.7563152 -0.50331259 -0.4895452 0 0 0
2.0260708 -0.58061725 -0.48658261 0 1 0
2.40642 -0.68961507 -0.48658818 0 2 0
2.8411191 -0.81418812 -0.46810129 0 3 0
2.8535347 -0.8177461 -0.36447254 0 4 0
2.8384345 -0.81341881 -0.25832626 0 5 0
2.8358433 -0.81267625 -0.15460227 0 6 0
2.8375156 -0.81315541 -0.051522579 0 7 0
2.8311238 -0.81132376 0.051406525 0 8 0
2.8296275 -0.81089491 0.15426341 0 9 0
2.8367088 -0.81292427 0.2581692 0 10 0
2.8463011 -0.81567311 0.36354861 0 11 0
2.8408163 -0.81410128 0.46805137 0 12 0
1.7695968 -0.4798215 -0.49128255 0 0 0
2.0442464 -0.55429202 -0.48899218 0 1 0
2.4160056 -0.65509355 -0.48658061 0 2 0
2.8477392 -0.77215701 -0.46732318 0 3 0
2.8442197 -0.77120268 -0.36183578 0 4 0
2.8321338 -0.76792562 -0.25672618 0 5 0
2.8388031 -0.76973397 -0.15414719 0 6 0
2.8495522 -0.77264857 -0.051535051 0 7 0
2.8566301 -0.77456772 0.051663056 0 8 0
2.8460567 -0.7717008 0.15454108 0 9 0
2.8493183 -0.77258515 0.25828391 0 10 0
2.8414693 -0.77045697 0.3614859 0 11 0
2.8554974 -0.77426058 0.46859631 0 12 0
1.7760465 -0.45438546 -0.49121723 0 0 0
2.0367141 -0.52107489 -0.48535663 0 1 0
2.4242134 -0.62021309 -0.48639593 0 2 0
2.8412278 -0.72690248 -0.46449965 0 3 0
2.8368278 -0.72577673 -0.35953698 0 4 0
2.846575 -0.72827053 -0.25706398 0 5 0
2.8330555 -0.72481167 -0.15325606 0 6 0
2.8377526 -0.72601336 -0.051128473 0 7 0
2.8562191 -0.73073786 0.051461186 0 8 0
2.8434622 -0.72747415 0.15381902 0 9 0
2.8544576 -0.73028719 0.25777584 0 10 0
2.8559256 -0.73066276 0.3619574 0 11 0
2.8525004 -0.72978652 0.46634257 0 12 0
1.7718964 -0.42640024 -0.48833132 0 0 0
2.0502889 -0.49339437 -0.48685876 0 1 0
2.4343691 -0.58582187 -0.48670134 0 2 0
2.8346176 -0.68214017 -0.46177545 0 3 0
2.862366 -0.68881768 -0.36148706 0 4 0
2.8423722 -0.68400627 -0.25577408 0 5 0
2.8435528 -0.68429035 -0.15327838 0 6 0
2.8493264 -0.68567973 -0.05115493 0 7 0
2.8531764 -0.68660623 0.051224049 0 8 0
2.8563349 -0.68736637 0.1539674 0 9 0
2.8395224 -0.68332046 0.25551766 0 10 0
2.8324316 -0.6816141 0.35770664 0 11 0
2.8414578 -0.68378621 0.46288976 0 12 0
1.7819011 -0.40191829 -0.48945302 0 0 0
2.0659387 -0.46598464 -0.48894104 0 1 0
2.4456351 -0.5516274 -0.48732522 0 2 0
2.8275969 -0.63778114 -0.45909756 0 3 0
2.846751 -0.64210147 -0.35831764 0 4 0
2.8503611 -0.64291573 -0.25563872 0 5 0
2.8476682 -0.64230829 -0.15298897 0 6 0
2.8320024 -0.63877481 -0.050674569 0 7 0
2.8384483 -0.64022869 0.050789908 0 8 0
2.8406761 -0.64073122 0.15261333 0 9 0
2.8407881 -0.64075655 0.25478017 0 10 0
2.8473835 -0.64224416 0.35839728 0 11 0
2.8535476 -0.6436345 0.46331102 0 12 0
1.7683924 -0.37235737 -0.48422888 0 0 0
2.0746031 -0.43683389 -0.48946169 0 1 0
2.4629428 -0.51860374 -0.48924476 0 2 0
2.8584332 -0.60187924 -0.46265811 0 3 0
2.8643126 -0.60311723 -0.35940471 0 4 0
2.8540444 -0.60095513 -0.25517148 0 5 0
2.8391597 -0.59782094 -0.15205657 0 6 0
2.8334649 -0.59662181 -0.050542753 0 7 0
2.8525016 -0.60063022 0.050882328 0 8 0
2.8457606 -0.59921086 0.15241009 0 9 0
2.8371527 -0.5973984 0.25366125 0 10 0
2.8437173 -0.59878057 0.35682049 0 11 0
2.8442852 -0.5989002 0.46036816 0 12 0
1.7787758 -0.34803435 -0.48565829 0 0 0
2.0821996 -0.4074021 -0.48982799 0 1 0
2.457339 -0.4808017 -0.48671475 0 2 0
2.8455913 -0.55676687 -0.45924261 0 3 0
2.8443358 -0.5565213 -0.35586214 0 4 0
2.8386018 -0.55539936 -0.25305411 0 5 0
2.8378778 -0.55525768 -0.15154675 0 6 0
2.8522851 -0.55807662 -0.050730783 0 7 0
2.8530211 -0.55822062 0.050743874 0 8 0
2.8494771 -0.55752718 0.15216616 0 9 0
2.8529565 -0.55820799 0.25433379 0 10 0
2.8408523 -0.55583966 0.35542631 0 11 0
2.8485179 -0.55733949 0.45971492 0 12 0
1.7962385 -0.32483101 -0.48910657 0 0 0
2.0770392 -0.37561086 -0.48729935 0 1 0
2.4755673 -0.44768053 -0.48900586 0 2 0
2.8532724 -0.51598454 -0.45924327 0 3 0
2.8460891 -0.51468551 -0.35512343 0 4 0
2.8400276 -0.51358932 -0.2525 0 5 0
2.8366969 -0.51298702 -0.15107609 0 6 0
2.8338404 -0.51247048 -0.050267112 0 7 0
2.846379 -0.5147379 0.050489523 0 8 0
2.8318515 -0.51211077 0.15081804 0 9 0
2.8426008 -0.51405472 0.25272879 0 10 0
2.8421969 -0.5139817 0.35463777 0 11 0
2.8387942 -0.51336628 0.45691293 0 12 0
1.8050951 -0.29981938 -0.4902994 0 0 0
2.0895698 -0.34706956 -0.4890236 0 1 0
2.4626799 -0.4090417 -0.48525393 0 2 0
2.8400104 -0.47171488 -0.45597529 0 3 0
2.8435292 -0.47229934 -0.35392424 0 4 0
2.8395009 -0.47163025 -0.25182721 0 5 0
2.8452837 -0.47259074 -0.15115766 0 6 0
2.8391824 -0.47157732 -0.050236989 0 7 0
2.8348694 -0.47086099 0.050160676 0 8 0
2.8447466 -0.47250152 0.15112913 0 9 0
2.8604679 -0.4751128 0.25368673 0 10 0
2.8496277 -0.47331226 0.35468328 0 11 0
2.8423324 -0.47210053 0.45634806 0 12 0
1.7964196 -0.27201873 -0.48683554 0 0 0
2.0935383 -0.31700927 -0.48884037 0 1 0
2.4872134 -0.37662062 -0.48897582 0 2 0
2.8330073 -0.42898169 -0.45381859 0 3 0
2.8247859 -0.42773679 -0.35079336 0 4 0
2.8472488 -0.43113816 -0.25194123 0 5 0
2.847872 -0.43123254 -0.1509518 0 6 0
2.8502975 -0.4315998 -0.050319199 0 7 0
2.8427386 -0.43045524 0.050185755 0 8 0
2.84917 -0.43142909 0.1510206 0 9 0
2.856811 -0.4325861 0.25278738 0 10 0
2.8432035 -0.43052563 0.35308054 0 11 0
2.8535964 -0.43209931 0.45711672 0 12 0
1.812219 -0.24793465 -0.4901053 0 0 0
2.1071439 -0.28828412 -0.49100345 0 1 0
2.4942303 -0.34124246 -0.48934492 0 2 0
2.85376 -0.39043072 -0.45620102 0 3 0
2.8470058 -0.38950664 -0.35282421 0 4 0
2.8468821 -0.38948974 -0.25138974 0 5 0
2.8527057 -0.39028648 -0.15089644 0 6 0
2.8410201 -0.38868773 -0.050052073 0 7 0
2.8474622 -0.38956907 0.050165564 0 8 0
2.8454065 -0.38928783 0.15051034 0 9 0
2.8432076 -0.388987 0.25106528 0 10 0
2.8352699 -0.38790104 0.3513698 0 11 0
2.8451104 -0.38924733 0.45481828 0 12 0
1.8071418 -0.22094089 -0.48782694 0 0 0
2.1128914 -0.25832182 -0.49143085 0 1 0
2.4814296 -0.30337924 -0.48593184 0 2 0
2.8452566 -0.34786066 -0.45399919 0 3 0
2.8583376 -0.34945995 -0.35357246 0 4 0
2.8291447 -0.34589085 -0.24936076 0 5 0
2.849129 -0.3483341 -0.1504281 0 6 0
2.8425117 -0.34752506 -0.049985595 0 7 0
2.8543317 -0.3489702 0.050193451 0 8 0
2.8539689 -0.34892583 0.15068364 0 9 0
2.8321934 -0.34626356 0.24962944 0 10 0
2.8475692 -0.3481434 0.35224041 0 11 0
2.839493 -0.34715602 0.45307955 0 12 0
1.8032823 -0.19431777 -0.4859845 0 0 0
2.0909266 -0.22531371 -0.48552227 0 1 0
2.4858196 -0.26786652 -0.48599091 0 2 0
2.8416686 -0.30621204 -0.45268095 0 3 0
2.854455 -0.30758986 -0.35251147 0 4 0
2.8439047 -0.30645299 -0.25024945 0 5 0
2.8555241 -0.30770507 -0.15051781 0 6 0
2.8351827 -0.30551311 -0.049774714 0 7 0
2.84922 -0.30702576 0.050021157 0 8 0
2.8528833 -0.30742049 0.15037861 0 9 0
2.8468175 -0.30676684 0.25050575 0 10 0
2.8441043 -0.30647451 0.35123321 0 11 0
2.8465149 -0.30673426 0.45345297 0 12 0
1.8106815 -0.16893741 -0.487277 0 0 0
2.1091888 -0.1967883 -0.4890587 0 1 0
2.5015202 -0.23339298 -0.48835731 0 2 0
2.8415902 -0.26512167 -0.45201764 0 3 0
2.8440595 -0.26535207 -0.3507227 0 4 0
2.8432472 -0.26527625 -0.24983187 0 5 0
2.8404551 -0.26501575 -0.14950824 0 6 0
2.8412213 -0.26508725 -0.049809016 0 7 0
2.8492661 -0.26583782 0.049950048 0 8 0
2.8482711 -0.26574498 0.14991963 0 9 0
2.8404946 -0.26501945 0.24959001 0 10 0
2.856914 -0.26655141 0.35230789 0 11 0
2.8473101 -0.26565534 0.4529275 0 12 0
1.8097385 -0.14275518 -0.48642355 0 0 0
2.0994837 -0.16561075 -0.48620892 0 1 0
2.4953017 -0.19683352 -0.48654345 0 2 0
3.0650437 -0.24177572 -0.4869625 0 3 0
3.3404627 -0.26350123 -0.41143072 0 4 0
3.3440275 -0.26378244 -0.29347286 0 5 0
3.3448756 -0.26384932 -0.17584176 0 6 0
3.3469391 -0.2640121 -0.05860243 0 7 0
3.3464346 -0.26397231 0.058593594 0 8 0
3.3457203 -0.26391596 0.17588618 0 9 0
3.3346055 -0.2630392 0.29264599 0 10 0
3.3555925 -0.26469469 0.4132942 0 11 0
1.818408 -0.1172789 -0.48825252 0 0 0
2.1176298 -0.13657734 -0.48990837 0 1 0
2.5076039 -0.16172886 -0.48844081 0 2 0
3.0614662 -0.19745041 -0.48589531 0 3 0
3.974957 -0.25636634 -0.48907667 0 4 0
5.5775476 -0.35972601 -0.48898527 0 5 0
9.2807817 -0.59856755 -0.48739499 0 6 0
27.878744 -1.79805 -0.48763558 0 7 0
1.8144073 -0.090966463 -0.48677889 0 0 0
2.1300941 -0.10679361 -0.49238786 0 1 0
2.5183215 -0.12625764 -0.49012619 0 2 0
3.0753973 -0.15418699 -0.48770612 0 3 0
3.9632802 -0.19870158 -0.48724011 0 4 0
5.5847359 -0.27999428 -0.48921406 0 5 0
9.2874184 -0.46563062 -0.48734361 0 6 0
27.914234 -1.3994979 -0.48785603 0 7 0
1.81034 -0.064803809 -0.48538908 0 0 0
2.1139021 -0.075670265 -0.48834461 0 1 0
2.5106609 -0.089872837 -0.48833486 0 2 0
3.0817883 -0.11031719 -0.4884192 0 3 0
3.9581866 -0.14168917 -0.48631477 0 4 0
5.5675454 -0.19929856 -0.48740837 0 5 0
9.2990074 -0.33287179 -0.48765174 0 6 0
27.923651 -0.99956858 -0.48772061 0 7 0
1.8222607 -0.039127626 -0.48838508 0 0 0
2.1126618 -0.045363124 -0.48785809 0 1 0
2.5088613 -0.053870328 -0.48778489 0 2 0
3.0784378 -0.066100284 -0.4876883 0 3 0
3.9811988 -0.085484393 -0.4889417 0 4 0
5.5699091 -0.11959722 -0.48741549 0 5 0
9.3134432 -0.19997847 -0.48820865 0 6 0
27.924765 -0.59960115 -0.48754019 0 7 0
1.8158565 -0.012994929 -0.48656899 0 0 0
2.1094446 -0.015095954 -0.4870154 0 1 0
2.5132113 -0.017985454 -0.48853052 0 2 0
3.0734005 -0.021994371 -0.48679054 0 3 0
3.9796131 -0.028479557 -0.48864684 0 4 0
5.5631084 -0.039811626 -0.48672068 0 5 0
9.2999887 -0.066554099 -0.48740351 0 6 0
27.93965 -0.19994628 -0.48770016 0 7 0
1.8266939 0.013072485 -0.48947293 0 0 0
2.1092906 0.01509485 -0.48697981 0 1 0
2.5066431 0.01793845 -0.48725381 0 2 0
3.0632544 0.021921763 -0.48518354 0 3 0
3.9806395 0.028486904 -0.48877287 0 4 0
5.5775361 0.039914876 -0.48798296 0 5 0
9.2840805 0.066440254 -0.48656976 0 6 0
27.942623 0.19996758 -0.48775208 0 7 0
1.8156495 0.03898567 -0.48661321 0 0 0
2.0962191 0.045010064 -0.48406109 0 1 0
2.5118742 0.053935021 -0.48837069 0 2 0
3.088954 0.066326089 -0.48935425 0 3 0
3.9542344 0.084905408 -0.4856301 0 4 0
5.563623 0.11946224 -0.4868654 0 5 0
9.3008528 0.19970812 -0.48754865 0 6 0
27.939833 0.59992474 -0.48780328 0 7 0
1.8224798 0.065238371 -0.488644 0 0 0
2.1126058 0.07562387 -0.48804516 0 1 0
2.499645 0.0894785 -0.4861922 0 2 0
3.0915399 0.11066627 -0.48996469 0 3 0
3.9744573 0.14227161 -0.48831382 0 4 0
5.5667801 0.19927117 -0.48734137 0 5 0
9.3073206 0.33316937 -0.48808771 0 6 0
27.907679 0.99899679 -0.48744163 0 7 0
1.8175087 0.091121949 -0.48761091 0 0 0
2.1128557 0.10592935 -0.48840308 0 1 0
2.5153642 0.12610938 -0.48955065 0 2 0
3.0708196 0.15395749 -0.4869802 0 3 0
3.9724288 0.19916023 -0.48836482 0 4 0
5.5667543 0.27909276 -0.48763889 0 5 0
9.2897921 0.46574959 -0.48746812 0 6 0
27.897886 1.3986782 -0.48757032 0 7 0
1.8184922 0.11728434 -0.48827511 0 0 0
2.1051924 0.13577518 -0.48703101 0 1 0
2.4923215 0.16074321 -0.48546401 0 2 0
3.0649328 0.19767399 -0.48644549 0 3 0
3.8126872 0.24590071 -0.46911106 0 4 0
3.7920539 0.24456994 -0.33245051 0 5 0
3.8130729 0.24592558 -0.20024958 0 6 0
3.8091595 0.24567318 -0.066627167 0 7 0
3.8135812 0.24595836 0.066704512 0 8 0
3.8148267 0.24603869 0.20034169 0 9 0
3.8052642 0.24542196 0.33360869 0 10 0
3.802629 0.245252 0.46787351 0 11 0
1.80923 0.14271505 -0.48628685 0 0 0
2.0989013 0.16556481 -0.48607403 0 1 0
2.5023305 0.19738798 -0.48791397 0 2 0
3.0646458 0.24174434 -0.48689929 0 3 0
3.1103485 0.24534945 -0.38308853 0 4 0
3.1152623 0.24573705 -0.27339634 0 5 0
3.1069803 0.24508376 -0.1633355 0 6 0
3.1190677 0.24603723 -0.05461257 0 7 0
3.1159694 0.24579284 0.054558322 0 8 0
3.1067822 0.24506813 0.16332509 0 9 0
3.1151371 0.24572717 0.27338538 0 10 0
3.1043177 0.24487373 0.38234574 0 11 0
3.1334431 0.24717119 0.49782953 0 12 0
1.8197248 0.16978116 -0.48971069 0 0 0
2.1066618 0.1965525 -0.48847273 0 1 0
2.4880533 0.23213652 -0.48572826 0 2 0
3.0024099 0.28012621 -0.47759956 0 3 0
2.9922795 0.27918106 -0.36900085 0 4 0
2.9940391 0.27934521 -0.26308173 0 5 0
2.9929056 0.27923948 -0.15753253 0 6 0
2.9982886 0.2797417 -0.052562539 0 7 0
2.9919369 0.27914909 0.05245119 0 8 0
2.9853134 0.2785311 0.15713289 0 9 0
2.990145 0.27898189 0.26273954 0 10 0
3.0008292 0.27997875 0.37005517 0 11 0
2.9816513 0.27818945 0.47429746 0 12 0
1.8101478 0.19505759 -0.48783478 0 0 0
2.1032841 0.22664532 -0.48839176 0 1 0
2.4947886 0.26883298 -0.48774439 0 2 0
2.9905226 0.32225221 -0.47639355 0 3 0
2.9945424 0.32268539 -0.36981159 0 4 0
2.9907429 0.32227594 -0.26317045 0 5 0
3.0013986 0.32342416 -0.158207 0 6 0
2.999753 0.32324687 -0.05266393 0 7 0
2.9886036 0.32204542 0.052468188 0 8 0
2.9879069 0.32197037 0.15749586 0 9 0
2.9956112 0.32280055 0.26359886 0 10 0
2.9820428 0.32133844 0.36826795 0 11 0
3.0008326 0.32336318 0.47803596 0 12 0
1.8168905 0.22213277 -0.49045855 0 0 0
2.0951765 0.25615597 -0.48731056 0 1 0
2.5017476 0.30586332 -0.48991066 0 2 0
2.9933846 0.36597079 -0.47763503 0 3 0
2.9858325 0.36504745 -0.3693434 0 4 0
2.9998567 0.36676207 -0.26440731 0 5 0
2.9874732 0.36524805 -0.15773241 0 6 0
2.9952118 0.36619419 -0.052670829 0 7 0
2.9874306 0.36524284 0.052533995 0 8 0
2.9864621 0.36512443 0.15767902 0 9 0
2.983402 0.3647503 0.26295698 0 10 0
2.9879041 0.36530071 0.36959964 0 11 0
2.9974508 0.36646792 0.47828385 0 12 0
1.7915505 0.24510692 -0.48451558 0 0 0
2.0907187 0.28603694 -0.48717609 0 1 0
2.4940917 0.34122351 -0.48931774 0 2 0
2.9920392 0.40934908 -0.47830629 0 3 0
2.9967942 0.40999961 -0.37138724 0 4 0
2.9933755 0.40953192 -0.26432565 0 5 0
2.9836111 0.40819597 -0.15782081 0 6 0
2.9860716 0.40853262 -0.052607536 0 7 0
2.9836214 0.4081974 0.052564368 0 8 0
2.992342 0.40939048 0.15828264 0 9 0
3.0059357 0.41125026 0.26543471 0 10 0
2.999402 0.4103564 0.37171042 0 11 0
2.9892952 0.40897363 0.4778676 0 12 0
1.8011086 0.27272877 -0.48810628 0 0 0
2.0725474 0.31383076 -0.48393899 0 1 0
2.4768536 0.37505192 -0.48693913 0 2 0
2.9923358 0.45310766 -0.47934139 0 3 0
2.9914243 0.45296961 -0.3714872 0 4 0
2.9819231 0.4515309 -0.26385802 0 5 0
2.9977705 0.45393056 -0.15889719 0 6 0
2.9931805 0.45323554 -0.05284166 0 7 0
2.9892509 0.45264047 0.052772284 0 8 0
3.0048048 0.45499572 0.15927005 0 9 0
2.9810643 0.45140088 0.26378202 0 10 0
2.9796753 0.45119053 0.37002814 0 11 0
2.9798532 0.45121747 0.47734177 0 12 0
1.7872113 0.29684895 -0.4854418 0 0 0
2.0947669 0.34793276 -0.49023986 0 1 0
2.473923 0.41090912 -0.48746929 0 2 0
2.9844773 0.49571025 -0.47917002 0 3 0
2.9809866 0.49513048 -0.3710331 0 4 0
2.9945917 0.49739024 -0.26558176 0 5 0
2.9883842 0.4963592 -0.15875998 0 6 0
2.9975731 0.49788544 -0.053039584 0 7 0
3.0051615 0.49914584 0.053173855 0 8 0
2.9931388 0.4971489 0.15901257 0 9 0
2.9882448 0.49633601 0.26501885 0 10 0
3.0000439 0.49829581 0.37340507 0 11 0
2.9962435 0.49766457 0.48105913 0 12 0
1.795318 0.32466453 -0.4888559 0 0 0
2.0813344 0.3763876 -0.48830703 0 1 0
2.4791183 0.44832268 -0.48970729 0 2 0
2.9841671 0.53965551 -0.48031121 0 3 0
2.9875455 0.54026645 -0.37277377 0 4 0
3.0023713 0.54294753 -0.26693359 0 5 0
2.9887769 0.54048908 -0.15917553 0 6 0
2.984199 0.53966123 -0.052934192 0 7 0
2.9870758 0.54018146 0.052985221 0 8 0
2.9865878 0.54009324 0.15905894 0 9 0
2.9865081 0.54007882 0.26552325 0 10 0
2.9992967 0.54239154 0.37424004 0 11 0
3.0024705 0.54296547 0.48325717 0 12 0
1.7794038 0.34815723 -0.48582971 0 0 0
2.0915575 0.40923303 -0.49202937 0 1 0
2.4526854 0.47989112 -0.48579296 0 2 0
2.9934375 0.58569443 -0.48310313 0 3 0
2.99769 0.58652645 -0.37504864 0 4 0
2.9870467 0.58444399 -0.2662876 0 5 0
2.987468 0.58452642 -0.15953507 0 6 0
2.9978039 0.58654875 -0.053318981 0 7 0
2.9992728 0.58683616 0.053345107 0 8 0
2.9913647 0.58528888 0.15974316 0 9 0
2.9857128 0.58418298 0.26616868 0 10 0
2.9871867 0.5844714 0.37373456 0 11 0
2.9910026 0.58521801 0.48271015 0 12 0
1.7809271 0.37499669 -0.48766115 0 0 0
2.0779407 0.43753666 -0.49024913 0 1 0
2.4491601 0.51570165 -0.48650697 0 2 0
2.985899 0.62871873 -0.48328936 0 3 0
2.9947124 0.63057452 -0.37576684 0 4 0
2.990133 0.6296103 -0.26733875 0 5 0
2.9914706 0.62989187 -0.16021386 0 6 0
2.9905376 0.62969548 -0.053344585 0 7 0
2.988287 0.62922156 0.053304438 0 8 0
3.003212 0.63236421 0.1608427 0 9 0
2.9980028 0.63126731 0.26804236 0 10 0
2.971616 0.62571126 0.37286881 0 11 0
2.9781659 0.62709045 0.48203769 0 12 0
1.7879757 0.40328845 -0.49112159 0 0 0
2.0730641 0.46759185 -0.49062741 0 1 0
2.4561467 0.55399835 -0.48941982 0 2 0
2.9846358 0.67320222 -0.48459491 0 3 0
2.9927056 0.67502236 -0.37668884 0 4 0
3.0144393 0.67992455 -0.2703543 0 5 0
2.9869232 0.67371815 -0.16047035 0 6 0
2.99704 0.67600006 -0.053627677 0 7 0
2.9989555 0.67643207 0.053661954 0 8 0
3.0000279 0.67667395 0.16117439 0 9 0
2.9886978 0.6741184 0.26804563 0 10 0
2.9951692 0.67557806 0.3769989 0 11 0
2.9988999 0.67641956 0.48691088 0 12 0
1.7549441 0.42232075 -0.48365933 0 0 0
2.0497971 0.49327603 -0.48674196 0 1 0
2.439537 0.58706552 -0.48773456 0 2 0
2.9994116 0.72179723 -0.48862129 0 3 0
2.9878981 0.71902657 -0.37734047 0 4 0
2.9926193 0.72016269 -0.26929426 0 5 0
2.9871008 0.7188347 -0.16101617 0 6 0
3.0072207 0.7236765 -0.053989667 0 7 0
2.9936903 0.72042042 0.053746745 0 8 0
2.9893034 0.71936476 0.1611349 0 9 0
2.9920168 0.72001767 0.26924005 0 10 0
2.9949412 0.72072142 0.37822995 0 11 0
2.9915879 0.7199145 0.4873468 0 12 0
1.7727156 0.45353326 -0.49029595 0 0 0
2.046005 0.52345186 -0.48757067 0 1 0
2.4421971 0.62481403 -0.49000418 0 2 0
2.9922287 0.7655347 -0.48918614 0 3 0
2.9959888 0.76649672 -0.37970889 0 4 0
2.9886527 0.76461983 -0.26989451 0 5 0
2.9803033 0.76248372 -0.16122153 0 6 0
2.9802217 0.76246285 -0.053695373 0 7 0
2.9973004 0.76683229 0.054003086 0 8 0
2.9929476 0.76571858 0.16190553 0 9 0
2.9901044 0.76499122 0.27002561 0 10 0
2.9909368 0.76520419 0.37906861 0 11 0
2.9841242 0.76346123 0.48786113 0 12 0
1.7547224 0.47578835 -0.48715308 0 0 0
2.0396981 0.5530588 -0.48790425 0 1 0
2.4009264 0.65100485 -0.48354366 0 2 0
2.9758368 0.80689031 -0.48834443 0 3 0
3.002003 0.81398523 -0.38190863 0 4 0
2.9726324 0.80602145 -0.26946205 0 5 0
2.9895144 0.81059897 -0.16233084 0 6 0
2.985919 0.80962408 -0.054001287 0 7 0
3.006701 0.8152591 0.054377135 0 8 0
2.988781 0.81040007 0.16229101 0 9 0
2.9979174 0.81287742 0.27175406 0 10 0
2.9911053 0.81103033 0.38052225 0 11 0
2.998508 0.81303757 0.49206483 0 12 0
1.7431773 0.4995476 -0.48588318 0 0 0
2.0365908 0.58363199 -0.48910913 0 1 0
2.390208 0.68496919 -0.48331007 0 2 0
2.9566731 0.84730279 -0.48713991 0 3 0
3.0009015 0.85997742 -0.38329521 0 4 0
2.9956169 0.85846305 -0.27263147 0 5 0
3.0048778 0.86111695 -0.16381757 0 6 0
3.0019963 0.86029118 -0.054509163 0 7 0
2.9970231 0.85886604 0.054418862 0 8 0
2.9939582 0.8579877 0.16322225 0 9 0
2.990674 0.85704654 0.2721816 0 10 0
3.0015309 0.86015779 0.38337559 0 11 0
2.99193 0.85740644 0.4929488 0 12 0
1.7424972 0.52645332 -0.48774403 0 0 0
2.0146313 0.60867202 -0.48587784 0 1 0
2.4126036 0.72890973 -0.489898 0 2 0
2.9379182 0.88762081 -0.48609331 0 3 0
2.9968133 0.90541452 -0.38438895 0 4 0
3.0038524 0.90754122 -0.27453506 0 5 0
2.9854279 0.90197468 -0.16344431 0 6 0
3.0011775 0.9067331 -0.054724351 0 7 0
2.9995482 0.90624082 0.054694641 0 8 0
2.982621 0.90112668 0.16329063 0 9 0
2.9997375 0.90629798 0.27415898 0 10 0
2.993814 0.90450835 0.38400424 0 11 0
2.9737813 0.89845598 0.49202707 0 12 0
1.735657 0.55161542 -0.48798943 0 0 0
2.0028775 0.63654172 -0.48519081 0 1 0
2.3921878 0.76026988 -0.48791218 0 2 0
2.9292996 0.93097126 -0.48682225 0 3 0
2.9994619 0.95326984 -0.38643923 0 4 0
2.982753 0.94795948 -0.27381873 0 5 0
2.9940641 0.9515543 -0.16464591 0 6 0
2.9962568 0.95225114 -0.054877535 0 7 0
3.008626 0.9561823 0.055104084 0 8 0
3.0028267 0.95433915 0.16512777 0 9 0
2.9817526 0.94764155 0.27372691 0 10 0
2.9794049 0.94689542 0.38385516 0 11 0
2.9802704 0.9471705 0.49529308 0 12 0
1.7381214 0.57991523 -0.49096578 0 0 0
1.9966849 0.66618359 -0.4859508 0 1 0
2.3811958 0.79447365 -0.4879396 0 2 0
2.9258246 0.97618622 -0.48851678 0 3 0
2.980891 0.99455887 -0.38584116 0 4 0
2.9930665 0.99862111 -0.27604941 0 5 0
2.9721081 0.99162847 -0.16420223 0 6 0
2.9778354 0.99353939 -0.05479499 0 7 0
3.00368 1.0021622 0.055270556 0 8 0
2.9905646 0.9977864 0.16522191 0 9 0
2.9901822 0.99765879 0.27578339 0 10 0
2.9976485 1.0001498 0.3880102 0 11 0
2.9944005 0.99906623 0.49996671 0 12 0
1.7258774 0.60341501 -0.48989674 0 0 0
1.9987664 0.69882464 -0.48884174 0 1 0
2.3597078 0.8250199 -0.48590645 0 2 0
2.9047761 1.0155909 -0.48737958 0 3 0
2.990608 1.0456002 -0.38899624 0 4 0
2.982332 1.0427066 -0.27640757 0 5 0
2.9924977 1.0462608 -0.16613907 0 6 0
3.0032041 1.0500041 -0.055532664 0 7 0
2.9956455 1.0473615 0.055392895 0 8 0
2.9985852 1.0483892 0.16647702 0 9 0
2.9918804 1.0460451 0.27729255 0 10 0
2.9940586 1.0468066 0.38944507 0 11 0
2.9843023 1.0433955 0.50072294 0 12 0
1.7112541 0.62592864 -0.48823896 0 0 0
1.9798721 0.72418153 -0.48670599 0 1 0
2.3740454 0.86835903 -0.49136785 0 2 0
2.890332 1.0572022 -0.48744512 0 3 0
2.9939864 1.0951161 -0.39143449 0 4 0
2.9911628 1.0940833 -0.27864891 0 5 0
2.9921014 1.0944266 -0.16696966 0 6 0
2.9900219 1.093666 -0.055572681 0 7 0
2.9956532 1.0957257 0.055677339 0 8 0
2.9854631 1.0919985 0.16659921 0 9 0
2.9987395 1.0968546 0.27935472 0 10 0
3.0020945 1.0980818 0.39249453 0 11 0
2.9953113 1.0956007 0.50514954 0 12 0
1.6988264 0.64909732 -0.48729405 0 0 0
1.9751983 0.75469512 -0.48816255 0 1 0
2.3536725 0.89930469 -0.48976523 0 2 0
2.8815866 1.1010132 -0.48857793 0 3 0
2.985148 1.1405824 -0.39237314 0 4 0
2.9914296 1.1429826 -0.2801691 0 5 0
2.9954879 1.1445332 -0.16805561 0 6 0
2.9820905 1.1394143 -0.055722676 0 7 0
2.9941347 1.1440163 0.055947732 0 8 0
2.9832699 1.1398649 0.16737014 0 9 0
2.9833069 1.139879 0.27940834 0 10 0
2.9870117 1.1412946 0.39261815 0 11 0
2.9938974 1.1439255 0.50762045 0 12 0
1.690995 0.67399514 -0.48776492 0 0 0
1.9672321 0.78409743 -0.48891741 0 1 0
2.3429973 0.9338696 -0.49027514 0 2 0
2.8611948 1.1404122 -0.48783815 0 3 0
2.9957373 1.194038 -0.39597094 0 4 0
2.9776936 1.1868463 -0.28044495 0 5 0
2.9883034 1.1910751 -0.16859174 0 6 0
2.9935577 1.1931694 -0.056250311 0 7 0
2.9912267 1.1922402 0.056206513 0 8 0
2.9884355 1.1911277 0.16859919 0 9 0
2.9808824 1.1881171 0.28074527 0 10 0
2.9843256 1.1894896 0.39446259 0 11 0
3.0105815 1.1999546 0.51330882 0 12 0
1.689236 0.70147479 -0.49010351 0 0 0
1.9589105 0.81346023 -0.48969281 0 1 0
2.3363588 0.9702 -0.49174148 0 2 0
2.850359 1.1836445 -0.4888292 0 3 0
2.9800377 1.2374952 -0.39619645 0 4 0
3.007998 1.2491059 -0.28495374 0 5 0
2.9926322 1.2427251 -0.16982208 0 6 0
2.9888048 1.2411358 -0.056489028 0 7 0
2.992708 1.2427566 0.056562796 0 8 0
2.9920778 1.2424949 0.16979063 0 9 0
2.9799528 1.2374599 0.28229699 0 10 0
3.0011024 1.2462425 0.39899701 0 11 0
1.6681854 0.72089565 -0.48693988 0 0 0
1.9321977 0.83498693 -0.485953 0 1 0
2.2903833 0.98977458 -0.48499703 0 2 0
2.8233397 1.2200882 -0.48714054 0 3 0
3.6569586 1.5803313 -0.48915043 0 4 0
5.112433 2.2093053 -0.48725694 0 5 0
8.5381269 3.689697 -0.48745778 0 6 0
25.655714 11.086953 -0.48784763 0 7 0
1.6568626 0.74432206 -0.48669478 0 0 0
1.9236544 0.86417443 -0.48686537 0 1 0
2.293134 1.0301579 -0.48865175 0 2 0
2.7968242 1.2564336 -0.48561874 0 3 0
3.614332 1.6236874 -0.48650753 0 4 0
5.0741477 2.2794888 -0.48666784 0 5 0
8.4899368 3.8139839 -0.48777327 0 6 0
25.491196 11.451558 -0.48778611 0 7 0
1.658443 0.7737453 -0.49036199 0 0 0
1.9052014 0.88887024 -0.48536539 0 1 0
2.2688503 1.0585304 -0.48665586 0 2 0
2.7903981 1.3018582 -0.48768851 0 3 0
3.6016669 1.680355 -0.48799023 0 4 0
5.0348849 2.3490217 -0.48607713 0 5 0
8.4272985 3.9317496 -0.48735785 0 6 0
25.311331 11.808982 -0.4875288 0 7 0
1.6352694 0.79162651 -0.48681054 0 0 0
1.9156747 0.92736942 -0.49136484 0 1 0
2.2612846 1.0946776 -0.48834381 0 2 0
2.7658639 1.3389422 -0.48670024 0 3 0
3.5764997 1.7313672 -0.48788807 0 4 0
5.0257354 2.4329357 -0.48850569 0 5 0
8.3712406 4.0524797 -0.48742053 0 6 0
25.154726 12.177289 -0.48781967 0 7 0
1.6326828 0.81942147 -0.48948196 0 0 0
1.8949816 0.95106572 -0.48949867 0 1 0
2.2350643 1.1217487 -0.486099 0 2 0
2.7534862 1.3819376 -0.48795283 0 3 0
3.5533214 1.7833641 -0.48815832 0 4 0
4.9768529 2.4978154 -0.48717955 0 5 0
8.3261213 4.1787682 -0.48822603 0 6 0
24.970442 12.532329 -0.48767462 0 7 0
1.6247863 0.84478337 -0.49068946 0 0 0
1.8712714 0.97293961 -0.48692146 0 1 0
2.2327161 1.1608673 -0.48915195 0 2 0
2.742167 1.4257487 -0.48951325 0 3 0
3.5176389 1.8289438 -0.48680279 0 4 0
4.9470286 2.5721338 -0.48781401 0 5 0
8.2426672 4.2856517 -0.48687959 0 6 0
24.786726 12.887488 -0.48763928 0 7 0
1.603395 0.86303419 -0.48790988 0 0 0
1.8650551 1.0038738 -0.48899275 0 1 0
2.1984143 1.1833059 -0.48529795 0 2 0
2.7228355 1.4655778 -0.48975694 0 3 0
3.5063503 1.887308 -0.48892891 0 4 0
4.9095869 2.642606 -0.48780182 0 5 0
8.194025 4.4104691 -0.48768538 0 6 0
24.596014 13.23891 -0.4875654 0 7 0
1.583742 0.88191926 -0.48572102 0 0 0
1.8324434 1.0204105 -0.48422217 0 1 0
2.1856575 1.2171007 -0.48627779 0 2 0
2.6953347 1.5009184 -0.48862448 0 3 0
3.4662902 1.9302311 -0.48714551 0 4 0
4.8805561 2.7177763 -0.4887324 0 5 0
8.1143351 4.5185318 -0.48674193 0 6 0
24.404762 13.589985 -0.48758024 0 7 0
1.5674925 0.90250027 -0.4846496 0 0 0
1.8238904 1.050124 -0.48588422 0 1 0
2.1755784 1.2526121 -0.48797432 0 2 0
2.6643357 1.5340194 -0.4869355 0 3 0
3.4459612 1.9840484 -0.4882296 0 4 0
4.8338332 2.7831302 -0.48799276 0 5 0
8.0577211 4.6393175 -0.4872793 0 6 0
24.205917 13.936811 -0.48754308 0 7 0
1.5647209 0.93097335 -0.48786277 0 0 0
1.8049524 1.0739056 -0.48488438 0 1 0
2.1619611 1.2863176 -0.48899955 0 2 0
2.6399589 1.5707154 -0.48653939 0 3 0
3.4197471 2.0346718 -0.48859173 0 4 0
4.7811165 2.8446555 -0.4867315 0 5 0
8.0069628 4.7639608 -0.4882834 0 6 0
23.996147 14.277162 -0.48738411 0 7 0
1.5447755 0.94930178 -0.48583075 0 0 0
1.7876639 1.0985626 -0.48441452 0 1 0
2.1314287 1.3098143 -0.48628435 0 2 0
2.623301 1.6120816 -0.487672 0 3 0
3.3891439 2.0827107 -0.4884285 0 4 0
4.7517133 2.9200423 -0.48794311 0 5 0
7.9344354 4.8759017 -0.48806649 0 6 0
23.807522 14.630296 -0.48775625 0 7 0
1.5334084 0.97282165 -0.48658517 0 0 0
1.7889316 1.1349303 -0.4891099 0 1 0
2.1201401 1.3450547 -0.48805127 0 2 0
2.6100769 1.6558795 -0.4895696 0 3 0
3.3493788 2.1249058 -0.48703104 0 4 0
4.6995029 2.9814487 -0.48691407 0 5 0
7.852746 4.9819226 -0.48737803 0 6 0
23.597658 14.970776 -0.48779684 0 7 0
1.5311004 1.002375 -0.49035534 0 0 0
1.7619697 1.1535197 -0.48620269 0 1 0
2.0955138 1.3718832 -0.48685277 0 2 0
2.5759149 1.6863904 -0.48763946 0 3 0
3.331109 2.1807981 -0.48886329 0 4 0
4.6470995 3.0423455 -0.48594663 0 5 0
7.7694464 5.086472 -0.48667684 0 6 0
23.371693 15.300893 -0.48760313 0 7 0
1.503567 1.0153857 -0.48614225 0 0 0
1.7499505 1.1817729 -0.4875038 0 1 0
2.0741048 1.4006801 -0.48648682 0 2 0
2.5478699 1.7206223 -0.48694274 0 3 0
3.294646 2.2249334 -0.48813578 0 4 0
4.6345387 3.129787 -0.48926756 0 5 0
7.7170401 5.2114553 -0.48801666 0 6 0
23.158642 15.639445 -0.48777854 0 7 0
1.5027452 1.0464554 -0.49066916 0 0 0
1.7422425 1.2132323 -0.49014395 0 1 0
2.0601611 1.4346189 -0.48798272 0 2 0
2.5162342 1.7522111 -0.48564011 0 3 0
3.2571766 2.2681756 -0.48734447 0 4 0
4.5749965 3.1858561 -0.48774579 0 5 0
7.6338325 5.3159146 -0.48751655 0 6 0
22.934441 15.970684 -0.48782113 0 7 0
1.4794416 1.0619888 -0.48797348 0 0 0
1.7100245 1.2275083 -0.48597324 0 1 0
2.0330825 1.4594094 -0.48646683 0 2 0
2.5047257 1.7979693 -0.48833588 0 3 0
3.2306974 2.3190942 -0.48829916 0 4 0
4.5283079 3.2505591 -0.48767859 0 5 0
7.5671463 5.431931 -0.4881731 0 6 0
22.683437 16.282871 -0.48738962 0 7 0
1.448079 1.0712091 -0.48263678 0 0 0
1.6944193 1.253438 -0.48658723 0 1 0
2.0145841 1.4902782 -0.48709467 0 2 0
2.4764969 1.8319761 -0.48789462 0 3 0
3.1944945 2.3631113 -0.48788971 0 4 0
4.4807491 3.3146114 -0.48761624 0 5 0
7.4739666 5.5288291 -0.48721728 0 6 0
22.455755 16.61153 -0.48755643 0 7 0
1.449689 1.1048486 -0.48839414 0 0 0
1.6804245 1.2806985 -0.48778254 0 1 0
2.0012527 1.5252109 -0.48909968 0 2 0
2.4532399 1.8696829 -0.48853502 0 3 0
3.1493995 2.4002457 -0.48619974 0 4 0
4.4252725 3.3726239 -0.48678252 0 5 0
7.3947544 5.6357498 -0.48726219 0 6 0
22.220116 16.934574 -0.48765311 0 7 0
1.4303343 1.1228194 -0.48723814 0 0 0
1.6599227 1.3030474 -0.48719546 0 1 0
1.9785172 1.5531456 -0.48892626 0 2 0
2.430249 1.9077573 -0.48934433 0 3 0
3.1208005 2.4498436 -0.48714814 0 4 0
4.3877716 3.4444222 -0.48803067 0 5 0
7.320013 5.7462459 -0.4877069 0 6 0
21.980848 17.255072 -0.48777238 0 7 0
1.4098388 1.139716 -0.48576373 0 0 0
1.6448892 1.3297311 -0.48831934 0 1 0
1.945986 1.5731384 -0.4864018 0 2 0
2.4049027 1.9441273 -0.48979372 0 3 0
3.0869844 2.4955232 -0.48739535 0 4 0
